5.464614629745483398e-01 -1.023691818118095398e-01 -6.127817183732986450e-02 1.270000000000000000e+02 1.520000000000000000e+02 1.450000000000000000e+02
4.774544537067413330e-01 9.330493398010730743e-03 -2.535795979201793671e-02 1.270000000000000000e+02 1.580000000000000000e+02 1.740000000000000000e+02
4.771106839179992676e-01 8.801166899502277374e-03 -2.535795979201793671e-02 1.270000000000000000e+02 1.570000000000000000e+02 1.730000000000000000e+02
4.767669439315795898e-01 8.271822705864906311e-03 -2.535795979201793671e-02 1.270000000000000000e+02 1.560000000000000000e+02 1.740000000000000000e+02
4.764231741428375244e-01 7.742487359791994095e-03 -2.535795979201793671e-02 1.270000000000000000e+02 1.560000000000000000e+02 1.740000000000000000e+02
4.772906601428985596e-01 9.436854161322116852e-03 -2.595899067819118500e-02 1.270000000000000000e+02 1.610000000000000000e+02 1.740000000000000000e+02
4.769469201564788818e-01 8.907526731491088867e-03 -2.595899067819118500e-02 1.270000000000000000e+02 1.600000000000000000e+02 1.730000000000000000e+02
4.766031503677368164e-01 8.378183469176292419e-03 -2.595899067819118500e-02 1.270000000000000000e+02 1.580000000000000000e+02 1.730000000000000000e+02
4.762594103813171387e-01 7.848847657442092896e-03 -2.595899067819118500e-02 1.270000000000000000e+02 1.590000000000000000e+02 1.740000000000000000e+02
4.771268963813781738e-01 9.543211199343204498e-03 -2.656000107526779175e-02 1.270000000000000000e+02 1.610000000000000000e+02 1.720000000000000000e+02
4.767831265926361084e-01 9.013884700834751129e-03 -2.656000107526779175e-02 1.270000000000000000e+02 1.600000000000000000e+02 1.710000000000000000e+02
4.764393866062164307e-01 8.484540507197380066e-03 -2.656000107526779175e-02 1.270000000000000000e+02 1.640000000000000000e+02 1.710000000000000000e+02
4.760956168174743652e-01 7.955205626785755157e-03 -2.656000107526779175e-02 1.270000000000000000e+02 1.670000000000000000e+02 1.740000000000000000e+02
4.769631028175354004e-01 9.649571962654590607e-03 -2.716103009879589081e-02 1.270000000000000000e+02 1.680000000000000000e+02 1.660000000000000000e+02
4.766193628311157227e-01 9.120244532823562622e-03 -2.716103009879589081e-02 1.270000000000000000e+02 1.670000000000000000e+02 1.650000000000000000e+02
4.762755930423736572e-01 8.590901270508766174e-03 -2.716103009879589081e-02 1.270000000000000000e+02 1.780000000000000000e+02 1.610000000000000000e+02
4.759318530559539795e-01 8.061565458774566650e-03 -2.716103009879589081e-02 1.270000000000000000e+02 1.760000000000000000e+02 1.590000000000000000e+02
4.781743288040161133e-01 1.187327411025762558e-02 -2.776206098496913910e-02 1.270000000000000000e+02 1.640000000000000000e+02 1.710000000000000000e+02
4.778305888175964355e-01 1.134392991662025452e-02 -2.776206098496913910e-02 1.270000000000000000e+02 1.640000000000000000e+02 1.710000000000000000e+02
4.774868488311767578e-01 1.081460341811180115e-02 -2.776206098496913910e-02 1.270000000000000000e+02 1.730000000000000000e+02 1.650000000000000000e+02
4.771430790424346924e-01 1.028525922447443008e-02 -2.776206098496913910e-02 1.270000000000000000e+02 1.710000000000000000e+02 1.630000000000000000e+02
4.959962368011474609e-01 1.710347831249237061e-02 -3.906895220279693604e-02 1.270000000000000000e+02 1.540000000000000000e+02 1.740000000000000000e+02
4.956391155719757080e-01 1.655356213450431824e-02 -3.906895220279693604e-02 1.270000000000000000e+02 1.550000000000000000e+02 1.750000000000000000e+02
4.952819943428039551e-01 1.600366272032260895e-02 -3.906895220279693604e-02 1.270000000000000000e+02 1.690000000000000000e+02 1.730000000000000000e+02
4.929468035697937012e-01 1.551293395459651947e-02 -3.780177235603332520e-02 1.270000000000000000e+02 1.690000000000000000e+02 1.730000000000000000e+02
4.925914704799652100e-01 1.496580243110656738e-02 -3.780177235603332520e-02 1.270000000000000000e+02 1.800000000000000000e+02 1.690000000000000000e+02
4.922361373901367188e-01 1.441863738000392914e-02 -3.780177235603332520e-02 1.270000000000000000e+02 1.780000000000000000e+02 1.670000000000000000e+02
4.958260655403137207e-01 1.721397228538990021e-02 -3.969334065914154053e-02 1.270000000000000000e+02 1.640000000000000000e+02 1.680000000000000000e+02
4.954689443111419678e-01 1.666405610740184784e-02 -3.969334065914154053e-02 1.270000000000000000e+02 1.630000000000000000e+02 1.670000000000000000e+02
4.373465180397033691e-01 -5.695692822337150574e-02 -3.395069390535354614e-02 1.270000000000000000e+02 4.500000000000000000e+01 3.300000000000000000e+01
4.976284801959991455e-01 2.073439769446849823e-02 -4.094210639595985413e-02 1.270000000000000000e+02 1.550000000000000000e+02 1.790000000000000000e+02
4.972713589668273926e-01 2.018448151648044586e-02 -4.094210639595985413e-02 1.270000000000000000e+02 1.530000000000000000e+02 1.770000000000000000e+02
4.969142377376556396e-01 1.963458210229873657e-02 -4.094210639595985413e-02 1.270000000000000000e+02 1.530000000000000000e+02 1.770000000000000000e+02
4.965571165084838867e-01 1.908467337489128113e-02 -4.094210639595985413e-02 1.270000000000000000e+02 1.500000000000000000e+02 1.740000000000000000e+02
4.962000250816345215e-01 1.853477396070957184e-02 -4.094210639595985413e-02 1.270000000000000000e+02 1.480000000000000000e+02 1.590000000000000000e+02
4.958429038524627686e-01 1.798485778272151947e-02 -4.094210639595985413e-02 1.270000000000000000e+02 1.360000000000000000e+02 1.470000000000000000e+02
4.974583387374877930e-01 2.084488980472087860e-02 -4.156648367643356323e-02 1.270000000000000000e+02 1.500000000000000000e+02 1.760000000000000000e+02
4.971012175083160400e-01 2.029497362673282623e-02 -4.156648367643356323e-02 1.270000000000000000e+02 1.500000000000000000e+02 1.760000000000000000e+02
4.967440962791442871e-01 1.974507421255111694e-02 -4.156648367643356323e-02 1.270000000000000000e+02 1.480000000000000000e+02 1.740000000000000000e+02
4.963869750499725342e-01 1.919516734778881073e-02 -4.156648367643356323e-02 1.270000000000000000e+02 1.440000000000000000e+02 1.700000000000000000e+02
4.960298836231231689e-01 1.864526793360710144e-02 -4.156648367643356323e-02 1.270000000000000000e+02 1.390000000000000000e+02 1.460000000000000000e+02
4.956727623939514160e-01 1.809534989297389984e-02 -4.156648367643356323e-02 1.270000000000000000e+02 1.280000000000000000e+02 1.350000000000000000e+02
4.370147287845611572e-01 -5.674145370721817017e-02 -3.516832366585731506e-02 1.270000000000000000e+02 4.500000000000000000e+01 3.200000000000000000e+01
4.363183081150054932e-01 -5.781383439898490906e-02 -3.516832366585731506e-02 1.270000000000000000e+02 4.500000000000000000e+01 3.100000000000000000e+01
4.972881674766540527e-01 2.095538377761840820e-02 -4.219087213277816772e-02 1.270000000000000000e+02 1.470000000000000000e+02 1.750000000000000000e+02
4.969310462474822998e-01 2.040546759963035583e-02 -4.219087213277816772e-02 1.270000000000000000e+02 1.470000000000000000e+02 1.750000000000000000e+02
4.965739548206329346e-01 1.985556818544864655e-02 -4.219087213277816772e-02 1.270000000000000000e+02 1.470000000000000000e+02 1.730000000000000000e+02
4.962168335914611816e-01 1.930566132068634033e-02 -4.219087213277816772e-02 1.270000000000000000e+02 1.430000000000000000e+02 1.690000000000000000e+02
4.958597123622894287e-01 1.875576190650463104e-02 -4.219087213277816772e-02 1.270000000000000000e+02 1.400000000000000000e+02 1.470000000000000000e+02
4.955026209354400635e-01 1.820584572851657867e-02 -4.219087213277816772e-02 1.270000000000000000e+02 1.220000000000000000e+02 1.280000000000000000e+02
4.401583075523376465e-01 -5.308548361063003540e-02 -3.641849383711814880e-02 1.270000000000000000e+02 4.500000000000000000e+01 3.700000000000000000e+01
4.398092031478881836e-01 -5.362305417656898499e-02 -3.641849383711814880e-02 1.270000000000000000e+02 3.900000000000000000e+01 3.100000000000000000e+01
4.394600987434387207e-01 -5.416061729192733765e-02 -3.641849383711814880e-02 1.270000000000000000e+02 3.800000000000000000e+01 2.900000000000000000e+01
4.391109943389892578e-01 -5.469818040728569031e-02 -3.641849383711814880e-02 1.270000000000000000e+02 3.800000000000000000e+01 2.900000000000000000e+01
4.378934502601623535e-01 -5.502512678503990173e-02 -3.577713295817375183e-02 1.270000000000000000e+02 3.900000000000000000e+01 3.100000000000000000e+01
4.375452399253845215e-01 -5.556132271885871887e-02 -3.577713295817375183e-02 1.270000000000000000e+02 3.900000000000000000e+01 3.100000000000000000e+01
4.371970295906066895e-01 -5.609751865267753601e-02 -3.577713295817375183e-02 1.270000000000000000e+02 4.400000000000000000e+01 3.100000000000000000e+01
4.368488192558288574e-01 -5.663371458649635315e-02 -3.577713295817375183e-02 1.270000000000000000e+02 4.500000000000000000e+01 3.200000000000000000e+01
4.361523985862731934e-01 -5.770609900355339050e-02 -3.577713295817375183e-02 1.270000000000000000e+02 4.500000000000000000e+01 3.100000000000000000e+01
4.971180260181427002e-01 2.106587775051593781e-02 -4.281524941325187683e-02 1.270000000000000000e+02 1.460000000000000000e+02 1.740000000000000000e+02
4.967609047889709473e-01 2.051595970988273621e-02 -4.281524941325187683e-02 1.270000000000000000e+02 1.450000000000000000e+02 1.730000000000000000e+02
4.964038133621215820e-01 1.996606029570102692e-02 -4.281524941325187683e-02 1.270000000000000000e+02 1.440000000000000000e+02 1.730000000000000000e+02
4.960466921329498291e-01 1.941615343093872070e-02 -4.281524941325187683e-02 1.270000000000000000e+02 1.400000000000000000e+02 1.690000000000000000e+02
4.956895709037780762e-01 1.886625401675701141e-02 -4.281524941325187683e-02 1.270000000000000000e+02 1.380000000000000000e+02 1.450000000000000000e+02
4.953324496746063232e-01 1.831633783876895905e-02 -4.281524941325187683e-02 1.270000000000000000e+02 1.170000000000000000e+02 1.230000000000000000e+02
4.399919807910919189e-01 -5.297746881842613220e-02 -3.702887147665023804e-02 1.270000000000000000e+02 5.600000000000000000e+01 5.000000000000000000e+01
4.396428763866424561e-01 -5.351503938436508179e-02 -3.702887147665023804e-02 1.270000000000000000e+02 4.300000000000000000e+01 3.700000000000000000e+01
4.392937719821929932e-01 -5.405260249972343445e-02 -3.702887147665023804e-02 1.270000000000000000e+02 3.900000000000000000e+01 3.100000000000000000e+01
4.389446675777435303e-01 -5.459016561508178711e-02 -3.702887147665023804e-02 1.270000000000000000e+02 3.800000000000000000e+01 3.000000000000000000e+01
4.377275407314300537e-01 -5.491739138960838318e-02 -3.638594225049018860e-02 1.270000000000000000e+02 3.800000000000000000e+01 3.000000000000000000e+01
4.373793303966522217e-01 -5.545358732342720032e-02 -3.638594225049018860e-02 1.270000000000000000e+02 3.900000000000000000e+01 3.100000000000000000e+01
4.370311200618743896e-01 -5.598978325724601746e-02 -3.638594225049018860e-02 1.270000000000000000e+02 4.100000000000000000e+01 3.100000000000000000e+01
4.366829097270965576e-01 -5.652597919106483459e-02 -3.638594225049018860e-02 1.270000000000000000e+02 4.200000000000000000e+01 3.200000000000000000e+01
4.363346993923187256e-01 -5.706216394901275635e-02 -3.638594225049018860e-02 1.270000000000000000e+02 4.500000000000000000e+01 3.200000000000000000e+01
4.359864890575408936e-01 -5.759835988283157349e-02 -3.638594225049018860e-02 1.270000000000000000e+02 4.500000000000000000e+01 3.200000000000000000e+01
4.349418878555297852e-01 -5.920692905783653259e-02 -3.638594225049018860e-02 1.270000000000000000e+02 4.500000000000000000e+01 3.100000000000000000e+01
4.969478845596313477e-01 2.117636799812316895e-02 -4.343961551785469055e-02 1.270000000000000000e+02 1.460000000000000000e+02 1.740000000000000000e+02
4.965907633304595947e-01 2.062645182013511658e-02 -4.343961551785469055e-02 1.270000000000000000e+02 1.450000000000000000e+02 1.730000000000000000e+02
4.962336719036102295e-01 2.007655240595340729e-02 -4.343961551785469055e-02 1.270000000000000000e+02 1.460000000000000000e+02 1.720000000000000000e+02
4.958765506744384766e-01 1.952664367854595184e-02 -4.343961551785469055e-02 1.270000000000000000e+02 1.350000000000000000e+02 1.610000000000000000e+02
4.955194294452667236e-01 1.897674426436424255e-02 -4.343961551785469055e-02 1.270000000000000000e+02 1.240000000000000000e+02 1.310000000000000000e+02
4.951623082160949707e-01 1.842682808637619019e-02 -4.343961551785469055e-02 1.270000000000000000e+02 1.100000000000000000e+02 1.160000000000000000e+02
4.398256540298461914e-01 -5.286945775151252747e-02 -3.763924166560173035e-02 1.270000000000000000e+02 5.900000000000000000e+01 5.500000000000000000e+01
4.394765496253967285e-01 -5.340702831745147705e-02 -3.763924166560173035e-02 1.270000000000000000e+02 4.800000000000000000e+01 4.400000000000000000e+01
4.391274452209472656e-01 -5.394459143280982971e-02 -3.763924166560173035e-02 1.270000000000000000e+02 4.000000000000000000e+01 3.400000000000000000e+01
4.387783408164978027e-01 -5.448215454816818237e-02 -3.763924166560173035e-02 1.270000000000000000e+02 3.700000000000000000e+01 3.100000000000000000e+01
4.375616312026977539e-01 -5.480965226888656616e-02 -3.699475154280662537e-02 1.270000000000000000e+02 3.800000000000000000e+01 2.900000000000000000e+01
4.372134208679199219e-01 -5.534584820270538330e-02 -3.699475154280662537e-02 1.270000000000000000e+02 3.800000000000000000e+01 2.900000000000000000e+01
4.368652105331420898e-01 -5.588204413652420044e-02 -3.699475154280662537e-02 1.270000000000000000e+02 4.100000000000000000e+01 3.100000000000000000e+01
4.365170001983642578e-01 -5.641824007034301758e-02 -3.699475154280662537e-02 1.270000000000000000e+02 4.200000000000000000e+01 3.200000000000000000e+01
4.361688196659088135e-01 -5.695442855358123779e-02 -3.699475154280662537e-02 1.270000000000000000e+02 4.500000000000000000e+01 3.200000000000000000e+01
4.358206093311309814e-01 -5.749062448740005493e-02 -3.699475154280662537e-02 1.270000000000000000e+02 4.500000000000000000e+01 3.200000000000000000e+01
4.354723989963531494e-01 -5.802680179476737976e-02 -3.699475154280662537e-02 1.270000000000000000e+02 4.500000000000000000e+01 3.100000000000000000e+01
4.347759783267974854e-01 -5.909919366240501404e-02 -3.699475154280662537e-02 1.270000000000000000e+02 4.500000000000000000e+01 3.100000000000000000e+01
4.967777431011199951e-01 2.128686197102069855e-02 -4.406400397419929504e-02 1.270000000000000000e+02 1.460000000000000000e+02 1.740000000000000000e+02
4.964206218719482422e-01 2.073694579303264618e-02 -4.406400397419929504e-02 1.270000000000000000e+02 1.440000000000000000e+02 1.720000000000000000e+02
4.960635304450988770e-01 2.018704637885093689e-02 -4.406400397419929504e-02 1.270000000000000000e+02 1.430000000000000000e+02 1.690000000000000000e+02
4.957064092159271240e-01 1.963713765144348145e-02 -4.406400397419929504e-02 1.270000000000000000e+02 1.240000000000000000e+02 1.500000000000000000e+02
4.953492879867553711e-01 1.908723823726177216e-02 -4.406400397419929504e-02 1.270000000000000000e+02 1.280000000000000000e+02 1.350000000000000000e+02
4.949921667575836182e-01 1.853732205927371979e-02 -4.406400397419929504e-02 1.270000000000000000e+02 1.180000000000000000e+02 1.240000000000000000e+02
4.396593272686004639e-01 -5.276144295930862427e-02 -3.824960812926292419e-02 1.270000000000000000e+02 6.000000000000000000e+01 5.800000000000000000e+01
4.375704824924468994e-01 -5.288767442107200623e-02 -3.695750609040260315e-02 1.270000000000000000e+02 4.900000000000000000e+01 4.700000000000000000e+01
4.372231662273406982e-01 -5.342250317335128784e-02 -3.695750609040260315e-02 1.270000000000000000e+02 4.300000000000000000e+01 3.600000000000000000e+01
4.368758499622344971e-01 -5.395732447504997253e-02 -3.695750609040260315e-02 1.270000000000000000e+02 3.900000000000000000e+01 3.200000000000000000e+01
4.365285336971282959e-01 -5.449213832616806030e-02 -3.695750609040260315e-02 1.270000000000000000e+02 3.800000000000000000e+01 2.900000000000000000e+01
4.370475411415100098e-01 -5.523811280727386475e-02 -3.760356083512306213e-02 1.270000000000000000e+02 3.800000000000000000e+01 2.900000000000000000e+01
4.366993308067321777e-01 -5.577430874109268188e-02 -3.760356083512306213e-02 1.270000000000000000e+02 3.900000000000000000e+01 3.100000000000000000e+01
4.363511204719543457e-01 -5.631050467491149902e-02 -3.760356083512306213e-02 1.270000000000000000e+02 4.000000000000000000e+01 3.200000000000000000e+01
4.360029101371765137e-01 -5.684668943285942078e-02 -3.760356083512306213e-02 1.270000000000000000e+02 4.400000000000000000e+01 3.100000000000000000e+01
4.356546998023986816e-01 -5.738288536667823792e-02 -3.760356083512306213e-02 1.270000000000000000e+02 4.500000000000000000e+01 3.200000000000000000e+01
4.353064894676208496e-01 -5.791906639933586121e-02 -3.760356083512306213e-02 1.270000000000000000e+02 4.500000000000000000e+01 3.100000000000000000e+01
4.346100687980651855e-01 -5.899145454168319702e-02 -3.760356083512306213e-02 1.270000000000000000e+02 4.500000000000000000e+01 3.100000000000000000e+01
4.966076016426086426e-01 2.139735594391822815e-02 -4.468839243054389954e-02 1.270000000000000000e+02 1.450000000000000000e+02 1.730000000000000000e+02
4.962504804134368896e-01 2.084743976593017578e-02 -4.468839243054389954e-02 1.270000000000000000e+02 1.440000000000000000e+02 1.720000000000000000e+02
4.958933591842651367e-01 2.029754035174846649e-02 -4.468839243054389954e-02 1.270000000000000000e+02 1.420000000000000000e+02 1.670000000000000000e+02
4.955362677574157715e-01 1.974763162434101105e-02 -4.468839243054389954e-02 1.270000000000000000e+02 1.260000000000000000e+02 1.510000000000000000e+02
4.951791465282440186e-01 1.919773221015930176e-02 -4.468839243054389954e-02 1.270000000000000000e+02 1.240000000000000000e+02 1.310000000000000000e+02
4.948220252990722656e-01 1.864781603217124939e-02 -4.468839243054389954e-02 1.270000000000000000e+02 1.170000000000000000e+02 1.230000000000000000e+02
4.374049901962280273e-01 -5.278021097183227539e-02 -3.756477311253547668e-02 1.270000000000000000e+02 4.800000000000000000e+01 4.900000000000000000e+01
4.370576739311218262e-01 -5.331503972411155701e-02 -3.756477311253547668e-02 1.270000000000000000e+02 4.400000000000000000e+01 4.000000000000000000e+01
4.367103576660156250e-01 -5.384986102581024170e-02 -3.756477311253547668e-02 1.270000000000000000e+02 3.700000000000000000e+01 3.300000000000000000e+01
4.363630414009094238e-01 -5.438467115163803101e-02 -3.756477311253547668e-02 1.270000000000000000e+02 3.700000000000000000e+01 3.000000000000000000e+01
4.368816316127777100e-01 -5.513037368655204773e-02 -3.821237757802009583e-02 1.270000000000000000e+02 3.700000000000000000e+01 3.000000000000000000e+01
4.365334212779998779e-01 -5.566656962037086487e-02 -3.821237757802009583e-02 1.270000000000000000e+02 3.900000000000000000e+01 3.100000000000000000e+01
4.361852109432220459e-01 -5.620276555418968201e-02 -3.821237757802009583e-02 1.270000000000000000e+02 3.900000000000000000e+01 3.100000000000000000e+01
4.358370006084442139e-01 -5.673895031213760376e-02 -3.821237757802009583e-02 1.270000000000000000e+02 4.200000000000000000e+01 3.200000000000000000e+01
4.354887902736663818e-01 -5.727514624595642090e-02 -3.821237757802009583e-02 1.270000000000000000e+02 4.300000000000000000e+01 3.300000000000000000e+01
4.351406097412109375e-01 -5.781132727861404419e-02 -3.821237757802009583e-02 1.270000000000000000e+02 4.500000000000000000e+01 3.100000000000000000e+01
4.344441890716552734e-01 -5.888371542096138000e-02 -3.821237757802009583e-02 1.270000000000000000e+02 4.500000000000000000e+01 3.100000000000000000e+01
4.964374601840972900e-01 2.150784805417060852e-02 -4.531276971101760864e-02 1.270000000000000000e+02 1.450000000000000000e+02 1.730000000000000000e+02
4.960803389549255371e-01 2.095793187618255615e-02 -4.531276971101760864e-02 1.270000000000000000e+02 1.440000000000000000e+02 1.720000000000000000e+02
4.957232177257537842e-01 2.040803246200084686e-02 -4.531276971101760864e-02 1.270000000000000000e+02 1.400000000000000000e+02 1.680000000000000000e+02
4.943759739398956299e-01 1.987673901021480560e-02 -4.466359689831733704e-02 1.270000000000000000e+02 1.250000000000000000e+02 1.530000000000000000e+02
4.940197467803955078e-01 1.932819746434688568e-02 -4.466359689831733704e-02 1.270000000000000000e+02 1.200000000000000000e+02 1.280000000000000000e+02
4.936635196208953857e-01 1.877966523170471191e-02 -4.466359689831733704e-02 1.270000000000000000e+02 1.100000000000000000e+02 1.180000000000000000e+02
4.372395277023315430e-01 -5.267275124788284302e-02 -3.817202150821685791e-02 1.270000000000000000e+02 4.900000000000000000e+01 4.700000000000000000e+01
4.368922114372253418e-01 -5.320758000016212463e-02 -3.817202150821685791e-02 1.270000000000000000e+02 4.400000000000000000e+01 4.000000000000000000e+01
4.365448951721191406e-01 -5.374239757657051086e-02 -3.817202150821685791e-02 1.270000000000000000e+02 3.800000000000000000e+01 3.400000000000000000e+01
4.361975789070129395e-01 -5.427721142768859863e-02 -3.817202150821685791e-02 1.270000000000000000e+02 3.500000000000000000e+01 3.100000000000000000e+01
4.367157220840454102e-01 -5.502263456583023071e-02 -3.882118687033653259e-02 1.270000000000000000e+02 3.500000000000000000e+01 3.100000000000000000e+01
4.363675117492675781e-01 -5.555883049964904785e-02 -3.882118687033653259e-02 1.270000000000000000e+02 3.700000000000000000e+01 3.000000000000000000e+01
4.360193014144897461e-01 -5.609502643346786499e-02 -3.882118687033653259e-02 1.270000000000000000e+02 3.800000000000000000e+01 3.100000000000000000e+01
4.356710910797119141e-01 -5.663121491670608521e-02 -3.882118687033653259e-02 1.270000000000000000e+02 4.200000000000000000e+01 3.200000000000000000e+01
4.353229105472564697e-01 -5.716741085052490234e-02 -3.882118687033653259e-02 1.270000000000000000e+02 4.200000000000000000e+01 3.200000000000000000e+01
4.349747002124786377e-01 -5.770358815789222717e-02 -3.882118687033653259e-02 1.270000000000000000e+02 4.400000000000000000e+01 3.100000000000000000e+01
4.346264898777008057e-01 -5.823978409171104431e-02 -3.882118687033653259e-02 1.270000000000000000e+02 4.400000000000000000e+01 3.100000000000000000e+01
4.342782795429229736e-01 -5.877598002552986145e-02 -3.882118687033653259e-02 1.270000000000000000e+02 4.500000000000000000e+01 3.100000000000000000e+01
4.962673187255859375e-01 2.161834202706813812e-02 -4.593715816736221313e-02 1.270000000000000000e+02 1.470000000000000000e+02 1.720000000000000000e+02
4.959101974964141846e-01 2.106842584908008575e-02 -4.593715816736221313e-02 1.270000000000000000e+02 1.460000000000000000e+02 1.710000000000000000e+02
4.955530762672424316e-01 2.051852643489837646e-02 -4.593715816736221313e-02 1.270000000000000000e+02 1.380000000000000000e+02 1.680000000000000000e+02
4.942062497138977051e-01 1.998695731163024902e-02 -4.528642445802688599e-02 1.270000000000000000e+02 1.300000000000000000e+02 1.600000000000000000e+02
4.938500225543975830e-01 1.943841576576232910e-02 -4.528642445802688599e-02 1.270000000000000000e+02 1.150000000000000000e+02 1.260000000000000000e+02
4.934937953948974609e-01 1.888988353312015533e-02 -4.528642445802688599e-02 1.270000000000000000e+02 9.800000000000000000e+01 1.080000000000000000e+02
4.370740354061126709e-01 -5.256528779864311218e-02 -3.877927362918853760e-02 1.270000000000000000e+02 4.700000000000000000e+01 4.500000000000000000e+01
4.367267191410064697e-01 -5.310011655092239380e-02 -3.877927362918853760e-02 1.270000000000000000e+02 4.200000000000000000e+01 4.000000000000000000e+01
4.363794028759002686e-01 -5.363493785262107849e-02 -3.877927362918853760e-02 1.270000000000000000e+02 4.000000000000000000e+01 3.800000000000000000e+01
4.360320866107940674e-01 -5.416974797844886780e-02 -3.877927362918853760e-02 1.270000000000000000e+02 3.600000000000000000e+01 3.200000000000000000e+01
4.365498125553131104e-01 -5.491489917039871216e-02 -3.942999616265296936e-02 1.270000000000000000e+02 3.500000000000000000e+01 3.100000000000000000e+01
4.362016320228576660e-01 -5.545109510421752930e-02 -3.942999616265296936e-02 1.270000000000000000e+02 3.700000000000000000e+01 3.000000000000000000e+01
4.358534216880798340e-01 -5.598729103803634644e-02 -3.942999616265296936e-02 1.270000000000000000e+02 3.800000000000000000e+01 3.100000000000000000e+01
4.355052113533020020e-01 -5.652347579598426819e-02 -3.942999616265296936e-02 1.270000000000000000e+02 3.900000000000000000e+01 3.100000000000000000e+01
4.351570010185241699e-01 -5.705967172980308533e-02 -3.942999616265296936e-02 1.270000000000000000e+02 4.000000000000000000e+01 3.200000000000000000e+01
4.348087906837463379e-01 -5.759585276246070862e-02 -3.942999616265296936e-02 1.270000000000000000e+02 4.400000000000000000e+01 3.100000000000000000e+01
4.344605803489685059e-01 -5.813204869627952576e-02 -3.942999616265296936e-02 1.270000000000000000e+02 4.400000000000000000e+01 3.100000000000000000e+01
4.341123700141906738e-01 -5.866824090480804443e-02 -3.942999616265296936e-02 1.270000000000000000e+02 4.500000000000000000e+01 3.100000000000000000e+01
4.960971772670745850e-01 2.172883413732051849e-02 -4.656153544783592224e-02 1.270000000000000000e+02 1.470000000000000000e+02 1.720000000000000000e+02
4.957400560379028320e-01 2.117891795933246613e-02 -4.656153544783592224e-02 1.270000000000000000e+02 1.460000000000000000e+02 1.710000000000000000e+02
4.953829348087310791e-01 2.062901854515075684e-02 -4.656153544783592224e-02 1.270000000000000000e+02 1.390000000000000000e+02 1.690000000000000000e+02
4.940365254878997803e-01 2.009717561304569244e-02 -4.590925201773643494e-02 1.270000000000000000e+02 1.340000000000000000e+02 1.640000000000000000e+02
4.936802983283996582e-01 1.954863406717777252e-02 -4.590925201773643494e-02 1.270000000000000000e+02 1.160000000000000000e+02 1.340000000000000000e+02
4.933240711688995361e-01 1.900010183453559875e-02 -4.590925201773643494e-02 1.270000000000000000e+02 9.000000000000000000e+01 1.070000000000000000e+02
4.382978379726409912e-01 -5.031854659318923950e-02 -3.938652947545051575e-02 1.270000000000000000e+02 4.100000000000000000e+01 3.900000000000000000e+01
4.379505217075347900e-01 -5.085336416959762573e-02 -3.938652947545051575e-02 1.270000000000000000e+02 4.100000000000000000e+01 3.900000000000000000e+01
4.376032054424285889e-01 -5.138819292187690735e-02 -3.938652947545051575e-02 1.270000000000000000e+02 4.200000000000000000e+01 4.000000000000000000e+01
4.372558891773223877e-01 -5.192301422357559204e-02 -3.938652947545051575e-02 1.270000000000000000e+02 4.400000000000000000e+01 4.200000000000000000e+01
4.369085729122161865e-01 -5.245782434940338135e-02 -3.938652947545051575e-02 1.270000000000000000e+02 4.300000000000000000e+01 4.100000000000000000e+01
4.365612566471099854e-01 -5.299265310168266296e-02 -3.938652947545051575e-02 1.270000000000000000e+02 4.200000000000000000e+01 4.000000000000000000e+01
4.362139403820037842e-01 -5.352747440338134766e-02 -3.938652947545051575e-02 1.270000000000000000e+02 4.000000000000000000e+01 3.800000000000000000e+01
4.358666241168975830e-01 -5.406228825449943542e-02 -3.938652947545051575e-02 1.270000000000000000e+02 3.700000000000000000e+01 3.300000000000000000e+01
4.363839328289031982e-01 -5.480716004967689514e-02 -4.003880545496940613e-02 1.270000000000000000e+02 3.600000000000000000e+01 3.200000000000000000e+01
4.360357224941253662e-01 -5.534335598349571228e-02 -4.003880545496940613e-02 1.270000000000000000e+02 3.500000000000000000e+01 3.100000000000000000e+01
4.356875121593475342e-01 -5.587955191731452942e-02 -4.003880545496940613e-02 1.270000000000000000e+02 3.500000000000000000e+01 3.100000000000000000e+01
4.353393018245697021e-01 -5.641574040055274963e-02 -4.003880545496940613e-02 1.270000000000000000e+02 3.900000000000000000e+01 3.100000000000000000e+01
4.349910914897918701e-01 -5.695193633437156677e-02 -4.003880545496940613e-02 1.270000000000000000e+02 3.900000000000000000e+01 3.100000000000000000e+01
4.346428811550140381e-01 -5.748811364173889160e-02 -4.003880545496940613e-02 1.270000000000000000e+02 4.200000000000000000e+01 3.200000000000000000e+01
4.342946708202362061e-01 -5.802430957555770874e-02 -4.003880545496940613e-02 1.270000000000000000e+02 4.200000000000000000e+01 3.200000000000000000e+01
4.339464902877807617e-01 -5.856050550937652588e-02 -4.003880545496940613e-02 1.270000000000000000e+02 4.400000000000000000e+01 3.100000000000000000e+01
4.335982799530029297e-01 -5.909670144319534302e-02 -4.003880545496940613e-02 1.270000000000000000e+02 4.500000000000000000e+01 3.200000000000000000e+01
4.949354827404022217e-01 2.185299806296825409e-02 -4.653206840157508850e-02 1.270000000000000000e+02 1.460000000000000000e+02 1.740000000000000000e+02
4.945792555809020996e-01 2.130445651710033417e-02 -4.653206840157508850e-02 1.270000000000000000e+02 1.450000000000000000e+02 1.730000000000000000e+02
4.942230284214019775e-01 2.075591497123241425e-02 -4.653206840157508850e-02 1.270000000000000000e+02 1.390000000000000000e+02 1.690000000000000000e+02
4.928779602050781250e-01 2.022517472505569458e-02 -4.587826132774353027e-02 1.270000000000000000e+02 1.360000000000000000e+02 1.660000000000000000e+02
4.925226271152496338e-01 1.967801712453365326e-02 -4.587826132774353027e-02 1.270000000000000000e+02 1.270000000000000000e+02 1.490000000000000000e+02
4.921672940254211426e-01 1.913085207343101501e-02 -4.587826132774353027e-02 1.270000000000000000e+02 8.300000000000000000e+01 1.040000000000000000e+02
4.381323456764221191e-01 -5.021108314394950867e-02 -3.999378159642219543e-02 1.270000000000000000e+02 3.900000000000000000e+01 3.700000000000000000e+01
4.377850294113159180e-01 -5.074590444564819336e-02 -3.999378159642219543e-02 1.270000000000000000e+02 3.900000000000000000e+01 3.700000000000000000e+01
4.374377131462097168e-01 -5.128073319792747498e-02 -3.999378159642219543e-02 1.270000000000000000e+02 4.000000000000000000e+01 3.800000000000000000e+01
4.370903968811035156e-01 -5.181555449962615967e-02 -3.999378159642219543e-02 1.270000000000000000e+02 4.100000000000000000e+01 3.900000000000000000e+01
4.367430806159973145e-01 -5.235036462545394897e-02 -3.999378159642219543e-02 1.270000000000000000e+02 4.100000000000000000e+01 3.900000000000000000e+01
4.363957643508911133e-01 -5.288519337773323059e-02 -3.999378159642219543e-02 1.270000000000000000e+02 4.100000000000000000e+01 3.900000000000000000e+01
4.360484480857849121e-01 -5.342001467943191528e-02 -3.999378159642219543e-02 1.270000000000000000e+02 3.900000000000000000e+01 3.700000000000000000e+01
4.357011318206787109e-01 -5.395482480525970459e-02 -3.999378159642219543e-02 1.270000000000000000e+02 3.600000000000000000e+01 3.400000000000000000e+01
4.362180233001708984e-01 -5.469942465424537659e-02 -4.064761474728584290e-02 1.270000000000000000e+02 3.600000000000000000e+01 3.400000000000000000e+01
4.358698129653930664e-01 -5.523562058806419373e-02 -4.064761474728584290e-02 1.270000000000000000e+02 3.500000000000000000e+01 3.100000000000000000e+01
4.355216026306152344e-01 -5.577181652188301086e-02 -4.064761474728584290e-02 1.270000000000000000e+02 3.500000000000000000e+01 3.100000000000000000e+01
4.351733922958374023e-01 -5.630800127983093262e-02 -4.064761474728584290e-02 1.270000000000000000e+02 3.700000000000000000e+01 3.000000000000000000e+01
4.348251819610595703e-01 -5.684419721364974976e-02 -4.064761474728584290e-02 1.270000000000000000e+02 3.800000000000000000e+01 3.100000000000000000e+01
4.344770014286041260e-01 -5.738037824630737305e-02 -4.064761474728584290e-02 1.270000000000000000e+02 4.200000000000000000e+01 3.200000000000000000e+01
4.341287910938262939e-01 -5.791657418012619019e-02 -4.064761474728584290e-02 1.270000000000000000e+02 4.200000000000000000e+01 3.200000000000000000e+01
4.337805807590484619e-01 -5.845276638865470886e-02 -4.064761474728584290e-02 1.270000000000000000e+02 4.400000000000000000e+01 3.100000000000000000e+01
4.334323704242706299e-01 -5.898896232247352600e-02 -4.064761474728584290e-02 1.270000000000000000e+02 4.400000000000000000e+01 3.100000000000000000e+01
4.947657585144042969e-01 2.196321450173854828e-02 -4.715489596128463745e-02 1.270000000000000000e+02 1.460000000000000000e+02 1.740000000000000000e+02
4.944095313549041748e-01 2.141467481851577759e-02 -4.715489596128463745e-02 1.270000000000000000e+02 1.450000000000000000e+02 1.730000000000000000e+02
4.940533041954040527e-01 2.086613327264785767e-02 -4.715489596128463745e-02 1.270000000000000000e+02 1.400000000000000000e+02 1.700000000000000000e+02
4.927086532115936279e-01 2.033511362969875336e-02 -4.649951681494712830e-02 1.270000000000000000e+02 1.370000000000000000e+02 1.670000000000000000e+02
4.923533201217651367e-01 1.978795789182186127e-02 -4.649951681494712830e-02 1.270000000000000000e+02 1.320000000000000000e+02 1.610000000000000000e+02
4.919979870319366455e-01 1.924079097807407379e-02 -4.649951681494712830e-02 1.270000000000000000e+02 9.000000000000000000e+01 1.180000000000000000e+02
4.916426539421081543e-01 1.869362592697143555e-02 -4.649951681494712830e-02 1.270000000000000000e+02 8.800000000000000000e+01 8.800000000000000000e+01
4.912873208522796631e-01 1.814646087586879730e-02 -4.649951681494712830e-02 1.270000000000000000e+02 9.100000000000000000e+01 9.100000000000000000e+01
4.379668831825256348e-01 -5.010362342000007629e-02 -4.060102999210357666e-02 1.270000000000000000e+02 4.000000000000000000e+01 3.600000000000000000e+01
4.376195669174194336e-01 -5.063844099640846252e-02 -4.060102999210357666e-02 1.270000000000000000e+02 3.600000000000000000e+01 3.400000000000000000e+01
4.372722506523132324e-01 -5.117326974868774414e-02 -4.060102999210357666e-02 1.270000000000000000e+02 3.900000000000000000e+01 3.700000000000000000e+01
4.369249343872070312e-01 -5.170809105038642883e-02 -4.060102999210357666e-02 1.270000000000000000e+02 3.900000000000000000e+01 3.700000000000000000e+01
4.365776181221008301e-01 -5.224290490150451660e-02 -4.060102999210357666e-02 1.270000000000000000e+02 4.100000000000000000e+01 3.900000000000000000e+01
4.362303018569946289e-01 -5.277773365378379822e-02 -4.060102999210357666e-02 1.270000000000000000e+02 4.000000000000000000e+01 3.800000000000000000e+01
4.358829855918884277e-01 -5.331255123019218445e-02 -4.060102999210357666e-02 1.270000000000000000e+02 3.900000000000000000e+01 3.700000000000000000e+01
4.355356693267822266e-01 -5.384736508131027222e-02 -4.060102999210357666e-02 1.270000000000000000e+02 3.900000000000000000e+01 3.700000000000000000e+01
4.360521137714385986e-01 -5.459168553352355957e-02 -4.125642403960227966e-02 1.270000000000000000e+02 3.700000000000000000e+01 3.500000000000000000e+01
4.357039034366607666e-01 -5.512788146734237671e-02 -4.125642403960227966e-02 1.270000000000000000e+02 3.500000000000000000e+01 3.300000000000000000e+01
4.353556931018829346e-01 -5.566407740116119385e-02 -4.125642403960227966e-02 1.270000000000000000e+02 3.400000000000000000e+01 3.200000000000000000e+01
4.350075125694274902e-01 -5.620026588439941406e-02 -4.125642403960227966e-02 1.270000000000000000e+02 3.700000000000000000e+01 3.000000000000000000e+01
4.346593022346496582e-01 -5.673646181821823120e-02 -4.125642403960227966e-02 1.270000000000000000e+02 3.700000000000000000e+01 3.000000000000000000e+01
4.343110918998718262e-01 -5.727263912558555603e-02 -4.125642403960227966e-02 1.270000000000000000e+02 3.900000000000000000e+01 3.100000000000000000e+01
4.339628815650939941e-01 -5.780883505940437317e-02 -4.125642403960227966e-02 1.270000000000000000e+02 3.900000000000000000e+01 3.100000000000000000e+01
4.336146712303161621e-01 -5.834503099322319031e-02 -4.125642403960227966e-02 1.270000000000000000e+02 4.400000000000000000e+01 3.100000000000000000e+01
4.332664608955383301e-01 -5.888122692704200745e-02 -4.125642403960227966e-02 1.270000000000000000e+02 4.400000000000000000e+01 3.100000000000000000e+01
4.329182505607604980e-01 -5.941742286086082458e-02 -4.125642403960227966e-02 1.270000000000000000e+02 4.500000000000000000e+01 3.000000000000000000e+01
4.322218298912048340e-01 -6.048980355262756348e-02 -4.125642403960227966e-02 1.270000000000000000e+02 4.500000000000000000e+01 3.100000000000000000e+01
4.318736493587493896e-01 -6.102599203586578369e-02 -4.125642403960227966e-02 1.270000000000000000e+02 4.500000000000000000e+01 3.100000000000000000e+01
4.945960342884063721e-01 2.207343094050884247e-02 -4.777771607041358948e-02 1.270000000000000000e+02 1.450000000000000000e+02 1.750000000000000000e+02
4.942398071289062500e-01 2.152489125728607178e-02 -4.777771607041358948e-02 1.270000000000000000e+02 1.440000000000000000e+02 1.740000000000000000e+02
4.938835799694061279e-01 2.097634971141815186e-02 -4.777771607041358948e-02 1.270000000000000000e+02 1.400000000000000000e+02 1.700000000000000000e+02
4.925393462181091309e-01 2.044505625963211060e-02 -4.712078720331192017e-02 1.270000000000000000e+02 1.380000000000000000e+02 1.680000000000000000e+02
4.921840429306030273e-01 1.989789865911006927e-02 -4.712078720331192017e-02 1.270000000000000000e+02 1.320000000000000000e+02 1.620000000000000000e+02
4.918287098407745361e-01 1.935073360800743103e-02 -4.712078720331192017e-02 1.270000000000000000e+02 1.220000000000000000e+02 1.520000000000000000e+02
4.914733767509460449e-01 1.880356855690479279e-02 -4.712078720331192017e-02 1.270000000000000000e+02 1.170000000000000000e+02 1.300000000000000000e+02
4.911180436611175537e-01 1.825640350580215454e-02 -4.712078720331192017e-02 1.270000000000000000e+02 1.240000000000000000e+02 1.370000000000000000e+02
4.369309544563293457e-01 -4.979790374636650085e-02 -4.055134952068328857e-02 1.270000000000000000e+02 4.000000000000000000e+01 3.600000000000000000e+01
4.365845322608947754e-01 -5.033135786652565002e-02 -4.055134952068328857e-02 1.270000000000000000e+02 3.700000000000000000e+01 3.300000000000000000e+01
4.362381100654602051e-01 -5.086480826139450073e-02 -4.055134952068328857e-02 1.270000000000000000e+02 4.000000000000000000e+01 3.600000000000000000e+01
4.358916580677032471e-01 -5.139826238155364990e-02 -4.055134952068328857e-02 1.270000000000000000e+02 4.000000000000000000e+01 3.600000000000000000e+01
4.355452358722686768e-01 -5.193170905113220215e-02 -4.055134952068328857e-02 1.270000000000000000e+02 4.100000000000000000e+01 3.700000000000000000e+01
4.351988136768341064e-01 -5.246515944600105286e-02 -4.055134952068328857e-02 1.270000000000000000e+02 4.200000000000000000e+01 4.000000000000000000e+01
4.348523914813995361e-01 -5.299861356616020203e-02 -4.055134952068328857e-02 1.270000000000000000e+02 4.400000000000000000e+01 4.200000000000000000e+01
4.345059692859649658e-01 -5.353204905986785889e-02 -4.055134952068328857e-02 1.270000000000000000e+02 4.400000000000000000e+01 4.200000000000000000e+01
4.350228607654571533e-01 -5.427473038434982300e-02 -4.120828956365585327e-02 1.270000000000000000e+02 4.100000000000000000e+01 3.900000000000000000e+01
4.346755445003509521e-01 -5.480955168604850769e-02 -4.120828956365585327e-02 1.270000000000000000e+02 3.600000000000000000e+01 3.400000000000000000e+01
4.343282282352447510e-01 -5.534436926245689392e-02 -4.120828956365585327e-02 1.270000000000000000e+02 3.500000000000000000e+01 3.300000000000000000e+01
4.348416030406951904e-01 -5.609252676367759705e-02 -4.186524450778961182e-02 1.270000000000000000e+02 3.700000000000000000e+01 3.000000000000000000e+01
4.344933927059173584e-01 -5.662872269749641418e-02 -4.186524450778961182e-02 1.270000000000000000e+02 3.700000000000000000e+01 3.000000000000000000e+01
4.341451823711395264e-01 -5.716490000486373901e-02 -4.186524450778961182e-02 1.270000000000000000e+02 3.800000000000000000e+01 2.900000000000000000e+01
4.337969720363616943e-01 -5.770109593868255615e-02 -4.186524450778961182e-02 1.270000000000000000e+02 3.900000000000000000e+01 3.000000000000000000e+01
4.334487617015838623e-01 -5.823729187250137329e-02 -4.186524450778961182e-02 1.270000000000000000e+02 4.100000000000000000e+01 3.100000000000000000e+01
4.331005513668060303e-01 -5.877348780632019043e-02 -4.186524450778961182e-02 1.270000000000000000e+02 4.200000000000000000e+01 3.200000000000000000e+01
4.318970143795013428e-01 -5.908811837434768677e-02 -4.120828956365585327e-02 1.270000000000000000e+02 4.400000000000000000e+01 3.100000000000000000e+01
4.315496981143951416e-01 -5.962293967604637146e-02 -4.120828956365585327e-02 1.270000000000000000e+02 4.400000000000000000e+01 3.100000000000000000e+01
4.312023818492889404e-01 -6.015776097774505615e-02 -4.120828956365585327e-02 1.270000000000000000e+02 4.500000000000000000e+01 3.100000000000000000e+01
4.308550655841827393e-01 -6.069257110357284546e-02 -4.120828956365585327e-02 1.270000000000000000e+02 4.500000000000000000e+01 3.100000000000000000e+01
4.944263100624084473e-01 2.218364924192428589e-02 -4.840054363012313843e-02 1.270000000000000000e+02 1.440000000000000000e+02 1.740000000000000000e+02
4.940700829029083252e-01 2.163510955870151520e-02 -4.840054363012313843e-02 1.270000000000000000e+02 1.440000000000000000e+02 1.740000000000000000e+02
4.937138557434082031e-01 2.108656801283359528e-02 -4.840054363012313843e-02 1.270000000000000000e+02 1.390000000000000000e+02 1.720000000000000000e+02
4.913824796676635742e-01 2.057196199893951416e-02 -4.708356410264968872e-02 1.270000000000000000e+02 1.360000000000000000e+02 1.690000000000000000e+02
4.910280406475067139e-01 2.002617157995700836e-02 -4.708356410264968872e-02 1.270000000000000000e+02 1.340000000000000000e+02 1.670000000000000000e+02
4.906736016273498535e-01 1.948038116097450256e-02 -4.708356410264968872e-02 1.270000000000000000e+02 1.310000000000000000e+02 1.640000000000000000e+02
4.903191626071929932e-01 1.893458329141139984e-02 -4.708356410264968872e-02 1.270000000000000000e+02 1.380000000000000000e+02 1.620000000000000000e+02
4.899647235870361328e-01 1.838879287242889404e-02 -4.708356410264968872e-02 1.270000000000000000e+02 1.370000000000000000e+02 1.610000000000000000e+02
4.896102845668792725e-01 1.784300245344638824e-02 -4.708356410264968872e-02 1.270000000000000000e+02 1.390000000000000000e+02 1.250000000000000000e+02
4.882735610008239746e-01 1.732239872217178345e-02 -4.642504826188087463e-02 1.270000000000000000e+02 1.460000000000000000e+02 1.320000000000000000e+02
4.364194869995117188e-01 -5.022417008876800537e-02 -4.115704819560050964e-02 1.270000000000000000e+02 4.200000000000000000e+01 3.800000000000000000e+01
4.360730350017547607e-01 -5.075762420892715454e-02 -4.115704819560050964e-02 1.270000000000000000e+02 4.300000000000000000e+01 3.900000000000000000e+01
4.357266128063201904e-01 -5.129107460379600525e-02 -4.115704819560050964e-02 1.270000000000000000e+02 4.400000000000000000e+01 4.000000000000000000e+01
4.353801906108856201e-01 -5.182452127337455750e-02 -4.115704819560050964e-02 1.270000000000000000e+02 4.500000000000000000e+01 4.100000000000000000e+01
4.350337684154510498e-01 -5.235797539353370667e-02 -4.115704819560050964e-02 1.270000000000000000e+02 4.700000000000000000e+01 4.800000000000000000e+01
4.346873462200164795e-01 -5.289142578840255737e-02 -4.115704819560050964e-02 1.270000000000000000e+02 4.900000000000000000e+01 5.000000000000000000e+01
4.343409240245819092e-01 -5.342486500740051270e-02 -4.115704819560050964e-02 1.270000000000000000e+02 4.600000000000000000e+01 4.800000000000000000e+01
4.348573982715606689e-01 -5.416726693511009216e-02 -4.181553795933723450e-02 1.270000000000000000e+02 4.500000000000000000e+01 4.700000000000000000e+01
4.345100820064544678e-01 -5.470208823680877686e-02 -4.181553795933723450e-02 1.270000000000000000e+02 3.800000000000000000e+01 3.900000000000000000e+01
4.341627657413482666e-01 -5.523690953850746155e-02 -4.181553795933723450e-02 1.270000000000000000e+02 3.500000000000000000e+01 3.600000000000000000e+01
4.346756935119628906e-01 -5.598478764295578003e-02 -4.247405380010604858e-02 1.270000000000000000e+02 3.700000000000000000e+01 3.000000000000000000e+01
4.343274831771850586e-01 -5.652098357677459717e-02 -4.247405380010604858e-02 1.270000000000000000e+02 3.700000000000000000e+01 3.000000000000000000e+01
4.339793026447296143e-01 -5.705716460943222046e-02 -4.247405380010604858e-02 1.270000000000000000e+02 3.800000000000000000e+01 3.100000000000000000e+01
4.336310923099517822e-01 -5.759336054325103760e-02 -4.247405380010604858e-02 1.270000000000000000e+02 3.800000000000000000e+01 3.100000000000000000e+01
4.332828819751739502e-01 -5.812955275177955627e-02 -4.247405380010604858e-02 1.270000000000000000e+02 4.100000000000000000e+01 3.000000000000000000e+01
4.329346716403961182e-01 -5.866574868559837341e-02 -4.247405380010604858e-02 1.270000000000000000e+02 4.100000000000000000e+01 3.000000000000000000e+01
4.317315518856048584e-01 -5.898065865039825439e-02 -4.181553795933723450e-02 1.270000000000000000e+02 4.400000000000000000e+01 3.100000000000000000e+01
4.313842356204986572e-01 -5.951547995209693909e-02 -4.181553795933723450e-02 1.270000000000000000e+02 4.400000000000000000e+01 3.100000000000000000e+01
4.310369193553924561e-01 -6.005029752850532532e-02 -4.181553795933723450e-02 1.270000000000000000e+02 4.300000000000000000e+01 3.100000000000000000e+01
4.306896030902862549e-01 -6.058511137962341309e-02 -4.181553795933723450e-02 1.270000000000000000e+02 4.300000000000000000e+01 3.100000000000000000e+01
4.942565858364105225e-01 2.229386754333972931e-02 -4.902337118983268738e-02 1.270000000000000000e+02 1.430000000000000000e+02 1.730000000000000000e+02
4.939003586769104004e-01 2.174532786011695862e-02 -4.902337118983268738e-02 1.270000000000000000e+02 1.430000000000000000e+02 1.730000000000000000e+02
4.935441315174102783e-01 2.119678631424903870e-02 -4.902337118983268738e-02 1.270000000000000000e+02 1.390000000000000000e+02 1.720000000000000000e+02
4.912136197090148926e-01 2.068162523210048676e-02 -4.770326614379882812e-02 1.270000000000000000e+02 1.370000000000000000e+02 1.700000000000000000e+02
4.908591806888580322e-01 2.013583667576313019e-02 -4.770326614379882812e-02 1.270000000000000000e+02 1.370000000000000000e+02 1.700000000000000000e+02
4.905047416687011719e-01 1.959004625678062439e-02 -4.770326614379882812e-02 1.270000000000000000e+02 1.370000000000000000e+02 1.700000000000000000e+02
4.901502728462219238e-01 1.904424652457237244e-02 -4.770326614379882812e-02 1.270000000000000000e+02 1.400000000000000000e+02 1.690000000000000000e+02
4.897958338260650635e-01 1.849845796823501587e-02 -4.770326614379882812e-02 1.270000000000000000e+02 1.380000000000000000e+02 1.670000000000000000e+02
4.894413948059082031e-01 1.795266754925251007e-02 -4.770326614379882812e-02 1.270000000000000000e+02 1.520000000000000000e+02 1.510000000000000000e+02
4.890869557857513428e-01 1.740686967968940735e-02 -4.770326614379882812e-02 1.270000000000000000e+02 1.420000000000000000e+02 1.410000000000000000e+02
4.362544119358062744e-01 -5.011698603630065918e-02 -4.176273941993713379e-02 1.270000000000000000e+02 6.100000000000000000e+01 5.500000000000000000e+01
4.359079897403717041e-01 -5.065043643116950989e-02 -4.176273941993713379e-02 1.270000000000000000e+02 5.700000000000000000e+01 5.100000000000000000e+01
4.355615675449371338e-01 -5.118389055132865906e-02 -4.176273941993713379e-02 1.270000000000000000e+02 5.500000000000000000e+01 5.200000000000000000e+01
4.352151453495025635e-01 -5.171733722090721130e-02 -4.176273941993713379e-02 1.270000000000000000e+02 5.700000000000000000e+01 5.400000000000000000e+01
4.348687231540679932e-01 -5.225078761577606201e-02 -4.176273941993713379e-02 1.270000000000000000e+02 5.600000000000000000e+01 5.700000000000000000e+01
4.345222711563110352e-01 -5.278424173593521118e-02 -4.176273941993713379e-02 1.270000000000000000e+02 5.900000000000000000e+01 6.000000000000000000e+01
4.341758787631988525e-01 -5.331767722964286804e-02 -4.176273941993713379e-02 1.270000000000000000e+02 5.100000000000000000e+01 5.600000000000000000e+01
4.346919059753417969e-01 -5.405980721116065979e-02 -4.242279008030891418e-02 1.270000000000000000e+02 4.900000000000000000e+01 5.400000000000000000e+01
