# .PCD v0.7 - Point Cloud Data file format
VERSION 0.7
FIELDS x y z rgb
SIZE 4 4 4 4
TYPE F F F U
COUNT 1 1 1 1
WIDTH 1131
HEIGHT 1
VIEWPOINT 0 0 0 1 0 0 0
POINTS 1131
DATA ascii
0.1352189 -0.19031987 0.6820001 8291460
0.1452553 -0.19031987 0.6820001 8422276
0.15529174 -0.19031987 0.6820001 8356480
0.16480151 -0.19035473 0.68212509 8553087
0.17450492 -0.19059891 0.68300003 8224899
0.18464778 -0.19069195 0.6833334 8356484
0.19489212 -0.19087794 0.68400002 8159361
0.20495799 -0.19087794 0.68400002 8355713
0.21595147 -0.19125073 0.68457156 8421763
0.2260294 -0.19151054 0.68409091 8290433
0.23501603 -0.1922686 0.68264717 8159361
0.24485801 -0.19226888 0.68300045 8158847
0.25479507 -0.1926042 0.68418759 8027774
0.26483196 -0.19272901 0.68494719 8159105
0.27505869 -0.19269229 0.68449986 8093056
0.28493765 -0.19281542 0.68458796 8093056
0.29485783 -0.19283187 0.68499982 8158849
0.30507013 -0.19294152 0.68489265 8093056
0.31498191 -0.19327046 0.68457103 8224128
0.32505617 -0.19327046 0.68457103 8158592
0.33486736 -0.19346464 0.68484175 8289666
0.34481898 -0.19359428 0.68571413 8158337
0.35503998 -0.19372667 0.6865831 8224384
0.36090764 -0.19434932 0.68600005 8224128
-0.35150483 -0.18165329 0.68300003 8947854
-0.34499252 -0.18153341 0.68429404 8750989
-0.33415353 -0.18275984 0.68357146 8619660
-0.32512382 -0.18449904 0.68425 8685453
-0.31501463 -0.18684705 0.68325871 8685708
-0.30506772 -0.1870039 0.68527937 8620427
-0.18302351 -0.18348509 0.68566668 10328983
-0.1747812 -0.18307257 0.68412501 8883597
-0.16524191 -0.1830391 0.68400002 8620425
-0.15517604 -0.1830391 0.68400002 8291974
-0.14511016 -0.18303911 0.68400002 8225927
-0.13504434 -0.18303913 0.68400002 8291462
-0.12467347 -0.18344635 0.68400002 8160390
-0.11491259 -0.18359905 0.68400002 8160391
-0.10507699 -0.18369783 0.68400002 8029319
-0.094223633 -0.18343118 0.68578553 8029062
-0.085024662 -0.18313999 0.68649954 8028806
-0.074921988 -0.18313994 0.68649954 7963269
-0.064633951 -0.18430854 0.68455553 7831684
-0.054597165 -0.18442819 0.68500012 7896963
-0.046175294 -0.18433845 0.68466675 7896706
0.075396672 -0.18498865 0.68414289 8291202
0.084994398 -0.18698694 0.68376476 8356484
0.094860025 -0.18708904 0.68450004 8290947
0.10493323 -0.18708903 0.68449986 8225410
0.11493604 -0.18711711 0.68464136 8422276
0.12504542 -0.18731746 0.68533325 8488069
0.1351309 -0.18731749 0.68533325 8422532
0.14500816 -0.18761139 0.68512481 8356996
0.15499595 -0.18784797 0.68492848 8225410
0.16463275 -0.18793175 0.68581372 8356225
0.17474873 -0.18822539 0.68660021 8290691
0.18488955 -0.18826224 0.68673342 8290692
0.19429095 -0.18899286 0.68471432 8224897
0.20495798 -0.18919817 0.68400002 8290433
0.21431594 -0.189117 0.6842857 8487299
0.22541878 -0.18891408 0.685 8290690
0.23399119 -0.18905197 0.68549997 8290690
-0.35271174 -0.17863412 0.68716663 8882573
-0.34608617 -0.17866841 0.68777776 8751502
-0.093220517 -0.179865 0.68900001 7963526
-0.085334294 -0.179865 0.68900007 7963526
-0.078574665 -0.179865 0.68899995 7963269
-0.30315542 -0.19403543 0.69754547 8751500
-0.29369283 -0.1925981 0.69445026 8948364
0.2398219 -0.1905688 0.69100004 8290690
0.24517336 -0.19077565 0.69174999 8290176
0.25496173 -0.19090587 0.69222218 8224125
0.2654452 -0.19112037 0.69299996 8290178
0.27487928 -0.19098246 0.6925 8093313
0.28470865 -0.19112037 0.69299996 8027520
0.29490697 -0.19112037 0.69299996 8224128
0.3045387 -0.19112037 0.69299996 8224129
0.31462371 -0.19082804 0.69400012 8158336
0.32483682 -0.19082807 0.69400012 8289665
0.33504978 -0.19082808 0.69400012 8289665
0.34526283 -0.19082807 0.69400012 8223875
0.35490847 -0.19082806 0.69400012 8289666
0.36416191 -0.1922352 0.69342321 8289920
-0.34100437 -0.1806909 0.69000006 8554380
-0.33495891 -0.18108365 0.69150007 8750988
-0.32355544 -0.1824604 0.69411379 8685708
-0.31422076 -0.18401739 0.69188893 8620173
-0.30384162 -0.18591799 0.69385713 8817291
-0.29523864 -0.18879582 0.69605565 9013900
-0.28331003 -0.18774053 0.69100004 9211022
-0.19117618 -0.18366511 0.69700003 10526362
-0.18448389 -0.18219313 0.69496 9803668
-0.17471433 -0.1811097 0.69161135 8948618
-0.16501383 -0.18101521 0.69125026 8554632
-0.15540642 -0.18101522 0.69125032 8357254
-0.14523388 -0.18101521 0.69125015 8291719
-0.13506132 -0.18101521 0.69125015 8291719
-0.12491327 -0.18105125 0.69138896 8225672
-0.11475743 -0.18108009 0.69150019 8160392
-0.10444278 -0.18128617 0.69126332 7963526
-0.096731864 -0.1812032 0.69228566 7963526
-0.084941 -0.18029347 0.69500011 7963526
-0.074216075 -0.18079129 0.69499999 7897733
-0.064908206 -0.18184561 0.69226682 7897220
-0.054961905 -0.18191557 0.69223285 7896963
-0.046695746 -0.18188031 0.6924001 7765633
0.077813134 -0.18200828 0.69253838 8225667
0.085088387 -0.18287577 0.69364715 8356483
0.094888583 -0.18304636 0.69505876 8356483
0.10469563 -0.18344828 0.69582361 8422276
0.11466213 -0.18339418 0.69599998 8422532
0.12490462 -0.18339422 0.69600022 8488069
0.13514704 -0.18339425 0.69600028 8488069
0.1453387 -0.18372805 0.69557154 8488070
0.15479302 -0.18377976 0.695746 8356483
0.16448456 -0.18494155 0.69438475 8356483
0.17510059 -0.18586338 0.69485706 8225667
0.18495761 -0.18598275 0.69499993 8225154
0.19531925 -0.18697934 0.69276476 8093312
0.20510378 -0.18708947 0.69317651 8224898
0.21505296 -0.18717222 0.69311094 8224897
0.22509676 -0.18733871 0.6933527 8290690
0.23510887 -0.18735257 0.6937781 8290690
0.24517089 -0.18739262 0.69429398 8224898
0.25511444 -0.18773547 0.69482368 8224641
0.26517248 -0.18782036 0.69554752 8421763
0.27529159 -0.18792716 0.6962747 8224384
0.28492767 -0.18809904 0.69620019 8158337
0.2948783 -0.18835919 0.69688213 8289921
0.30474916 -0.18868598 0.69660008 8289922
0.31301597 -0.18875323 0.69600016 8224129
0.32483682 -0.18912373 0.69400001 8289922
0.33504978 -0.18912373 0.69400001 8289665
0.34526286 -0.18912373 0.69400001 8355459
0.35490847 -0.18912373 0.69400001 8289922
0.36401966 -0.1894352 0.69514287 8289666
-0.36088216 -0.17446478 0.69900006 8685450
-0.35539839 -0.1759899 0.69518185 8816781
-0.34483197 -0.17717864 0.69474196 8685453
-0.33495077 -0.17798634 0.69515097 8619914
-0.3272793 -0.17887875 0.6945715 8750987
-0.18282562 -0.17872214 0.69775003 9145998
-0.17527252 -0.17828809 0.6954999 8883082
-0.16505827 -0.17858669 0.69499999 8554888
-0.15539873 -0.17858672 0.69499993 8423045
-0.14517099 -0.17858668 0.69499993 8357510
-0.13494326 -0.17858669 0.69499993 8422791
-0.12481341 -0.17872946 0.69555563 8225928
-0.11465251 -0.17884368 0.69600004 8094599
-0.10497908 -0.17884368 0.69600004 8029319
-0.095216006 -0.17867233 0.6953333 7963269
-0.084941007 -0.17858668 0.69499993 7963526
-0.07471326 -0.17858668 0.69499993 7963269
-0.064545751 -0.17875797 0.69566673 7963011
-0.054904878 -0.17884365 0.69600004 7962753
-0.047507554 -0.17912856 0.69600004 7896704
0.077333517 -0.17858626 0.69680947 8225669
0.080183826 -0.17821482 0.69800001 8225668
-0.28484246 -0.19008218 0.70600003 9408142
0.36990431 -0.19015454 0.70200002 8355458
0.37105218 -0.19015454 0.70200002 8289665
-0.32194111 -0.18137562 0.70200002 8883085
-0.31557891 -0.18243258 0.70295346 8686220
-0.30488205 -0.18292758 0.70519042 8882827
-0.29501367 -0.18412018 0.70437044 9145229
-0.2867772 -0.18606342 0.70622504 9276557
-0.27793768 -0.18044299 0.70900005 9539728
-0.19536406 -0.18253833 0.70699996 10000534
-0.1876884 -0.18127614 0.70100003 9803412
0.086512834 -0.18075567 0.7021001 8225669
0.095179193 -0.18073873 0.70337504 8422534
0.10519605 -0.18115628 0.70499998 8422276
0.11499458 -0.18115628 0.70499998 8422276
0.12479308 -0.18115628 0.70499998 8422276
0.135168 -0.18115629 0.70499998 8488069
0.1449665 -0.18115629 0.70499998 8422277
0.15488696 -0.18129905 0.70555556 8422276
0.16551937 -0.18213269 0.70242858 8356483
0.17529699 -0.18276778 0.7028262 8422020
0.18497702 -0.18293774 0.70300019 8290690
0.19474775 -0.18293773 0.70300025 8290690
0.20508431 -0.18301687 0.70531142 8355970
0.21499765 -0.18306251 0.7052542 8355713
0.22488569 -0.18313047 0.70530003 8421505
0.23506595 -0.18360393 0.70556229 8355713
0.24475172 -0.18351471 0.70522207 8290177
0.25499082 -0.18355507 0.70576453 8224897
0.26492232 -0.18377361 0.70582318 8290176
0.27503741 -0.1837175 0.70599967 8290434
0.28515077 -0.18377361 0.70582318 8158848
0.29461196 -0.18381169 0.70679992 8355713
0.30462468 -0.18577309 0.70499998 8224129
0.3152625 -0.18691997 0.70332116 8224385
0.32481194 -0.18721695 0.70330054 8289922
0.33507773 -0.1874862 0.70317662 8224129
0.34484681 -0.18759513 0.70282364 8355201
0.35490569 -0.18754072 0.70300031 8289922
0.36479926 -0.18760505 0.70346808 8289922
0.37183112 -0.18710057 0.70628566 8289664
-0.36225072 -0.17249966 0.70499998 8553866
-0.35450277 -0.17372943 0.70423543 8816523
-0.34497687 -0.1742366 0.70505548 8750987
-0.33535165 -0.17576264 0.70420003 8488585
-0.32531804 -0.1774829 0.70463455 8817292
-0.31652847 -0.17906985 0.70587498 8686477
-0.30667156 -0.17913772 0.70842856 8882828
-0.2802563 -0.17754106 0.70900005 9539728
-0.27793768 -0.17754108 0.70900005 9539728
-0.1936878 -0.17923948 0.70699996 9474963
-0.18436322 -0.17658532 0.70521432 8948877
-0.17448626 -0.17538121 0.70376945 8686475
-0.16487285 -0.17559731 0.70357174 8555146
-0.15509415 -0.17559732 0.70357168 8423048
-0.14537896 -0.17577465 0.70428151 8291977
-0.1349615 -0.17581125 0.70442903 8160391
-0.12488388 -0.17611481 0.70495015 8225928
-0.11497989 -0.17653203 0.70499992 8094855
-0.10518134 -0.17653207 0.70499998 8029574
-0.095010974 -0.17644186 0.70423543 8029062
-0.085180797 -0.17622417 0.70417666 7897733
-0.075102754 -0.17628162 0.70400023 7963525
-0.065047719 -0.17638381 0.70400029 7963267
-0.05504236 -0.17654581 0.70505559 7963010
-0.046878081 -0.17691778 0.704647 7831425
0.078459211 -0.17546313 0.70300001 8291462
0.085373223 -0.17745221 0.70456529 8291460
0.094353855 -0.17765474 0.70635271 8356997
0.10433149 -0.17913644 0.70499998 8356740
0.11499457 -0.17942499 0.70499998 8488069
0.12479309 -0.17942499 0.70499998 8422276
0.135168 -0.17942499 0.70499998 8488069
0.14496648 -0.17942499 0.70499998 8422276
0.15488698 -0.17956638 0.7055555 8422276
0.16529772 -0.17959465 0.70566666 8422276
0.17534317 -0.17983854 0.70662498 8422276
0.18526101 -0.17993397 0.70700002 8290690
0.19508731 -0.17993397 0.70700002 8356226
0.20028949 -0.17993397 0.70700002 8421506
-0.31257746 -0.1818599 0.71000004 8882829
-0.30298221 -0.18073618 0.71474999 8948107
-0.29349822 -0.1812249 0.71300018 9276815
-0.28491566 -0.18346575 0.71251088 9408143
-0.20307757 -0.18155466 0.71600002 10066328
-0.19872908 -0.18105227 0.71600002 9541269
0.1289427 -0.18004081 0.71200001 8356483
0.13476375 -0.18004082 0.71199995 8488069
0.14465956 -0.18004082 0.71199995 8422276
0.15455537 -0.18004082 0.71199995 8422276
0.16736171 -0.18004081 0.71200001 8488069
0.17504008 -0.18015319 0.71244454 8422276
0.18508449 -0.18029368 0.71300006 8356483
0.1950253 -0.18032177 0.71311122 8356225
0.20519127 -0.18054654 0.71400011 8421761
0.214683 -0.18067297 0.71450007 8224897
0.22523673 -0.18091646 0.71500009 8290433
0.23529114 -0.18138473 0.71500009 8355713
0.24522865 -0.18138471 0.71500009 8289921
0.25488859 -0.18118741 0.71422225 8290434
0.26510364 -0.18138471 0.71500009 8289921
0.27504116 -0.18138473 0.71500009 8158848
0.28497866 -0.18138471 0.71500009 8159104
0.29561663 -0.18161868 0.71428579 8289920
0.30544204 -0.18252485 0.71295118 8158591
0.31495774 -0.18230869 0.71406227 8224384
0.32492942 -0.1825667 0.7143656 8290178
0.33502147 -0.18298297 0.71488166 8224642
0.34458041 -0.18345463 0.71516001 8158849
0.35476735 -0.18347774 0.7153334 8224129
0.36404303 -0.18369555 0.71558827 8158337
0.37433541 -0.18326005 0.71660012 8092801
0.38003778 -0.18239945 0.71900004 8289922
-0.36380759 -0.17116074 0.71142864 8488587
-0.35502553 -0.17143564 0.71330011 8619659
-0.34512383 -0.17141072 0.71489996 8685706
-0.33531758 -0.17292681 0.71394402 8685706
-0.32546386 -0.17441095 0.71452945 8685449
-0.31491116 -0.17681904 0.7145763 8751498
-0.3051579 -0.17830221 0.71437502 8882827
-0.29521117 -0.17829183 0.7143333 9211021
-0.28721106 -0.17843628 0.71550006 9473935
-0.20225692 -0.17869623 0.71681821 9737620
-0.19473101 -0.17651834 0.71506655 9211534
-0.18535772 -0.17314665 0.71412486 9080462
-0.17503838 -0.17148201 0.71557128 8686733
-0.16511394 -0.17156643 0.71523225 8423306
-0.15481073 -0.1715247 0.71539992 8357514
-0.14486769 -0.17152475 0.71539992 8357514
-0.1353284 -0.17161217 0.71504861 8291721
-0.12484194 -0.17257001 0.7137779 8291719
-0.11528269 -0.17294835 0.71400023 8160905
-0.10477537 -0.17294836 0.71400023 8095111
-0.094152398 -0.17250024 0.71553659 8029063
-0.084868461 -0.17231423 0.71582359 7897733
-0.074921988 -0.17219228 0.71617663 8029061
-0.06497056 -0.1723142 0.71582365 8028803
-0.055809304 -0.17248806 0.71592855 7897220
-0.045817494 -0.17353278 0.71399999 7699583
0.085756719 -0.17340936 0.71592867 8291462
0.095239021 -0.1751518 0.71466666 8357255
0.10524952 -0.17677382 0.71346408 8291461
0.11474109 -0.17695121 0.71367836 8357253
0.12455757 -0.17690384 0.71395063 8422533
0.13480245 -0.17688817 0.71582991 8488069
0.14468957 -0.17694294 0.71600008 8422276
0.15514307 -0.17707922 0.71579236 8422533
0.16487747 -0.1775993 0.71500021 8422276
0.17490046 -0.17760722 0.71597624 8488069
0.18495515 -0.17763825 0.71676731 8356483
0.19436063 -0.17783643 0.71605551 8421505
0.20519127 -0.1787931 0.71400005 8487298
0.214683 -0.17891832 0.71450007 8355969
0.22476909 -0.17904353 0.71500009 8290433
0.23529117 -0.17904353 0.71500009 8289920
0.24522865 -0.17904353 0.71500009 8355713
0.25459713 -0.17887172 0.71417654 8421506
0.26510364 -0.17962883 0.71500009 8289920
0.27504113 -0.17962883 0.71500009 8159104
0.28497863 -0.17962883 0.71500009 8224640
0.29491615 -0.17962883 0.71500009 8289919
0.30463454 -0.17984416 0.71585715 8159105
-0.37017524 -0.16721876 0.71700001 8488330
-0.36447307 -0.16792294 0.71575618 8488586
-0.35664183 -0.16852842 0.71564293 8488842
-0.34994671 -0.16885702 0.71400005 8620427
-0.18133903 -0.16886234 0.71900004 9015698
-0.17487292 -0.16886234 0.71899998 8620940
-0.16487983 -0.16886234 0.71899998 8357514
-0.15488675 -0.16886234 0.71899998 8357514
-0.14489363 -0.16886234 0.71899998 8357514
-0.1360762 -0.16886234 0.71899998 8357514
-0.092576839 -0.16886234 0.71900004 8029063
-0.084935062 -0.16886234 0.71899998 7963526
-0.07494197 -0.16886234 0.71899998 7897733
-0.069063678 -0.16886234 0.71900004 8160135
-0.21190284 -0.18045498 0.72300005 9934743
-0.20864443 -0.18070456 0.72400004 9868950
0.30724794 -0.18020539 0.72200006 8159105
0.31530398 -0.18042378 0.72287506 8224384
0.32481539 -0.18045498 0.72300005 8158848
0.33467823 -0.18067339 0.72387499 8224899
0.34691507 -0.18123727 0.72318757 8093313
0.35465959 -0.18081722 0.72514278 8158593
0.36681861 -0.18148531 0.72342837 8092801
0.37491089 -0.18095416 0.72499996 8027264
0.38149676 -0.18070455 0.72400004 8224385
-0.35112149 -0.17027599 0.72000003 8488841
-0.3448661 -0.170678 0.72170007 8685707
-0.33387432 -0.17079839 0.72399998 8554120
-0.32374212 -0.17185472 0.72394997 8816777
-0.31530583 -0.17296445 0.72512513 8817034
-0.30584097 -0.17600676 0.72349995 8948105
-0.29587695 -0.17763793 0.72600001 9408142
-0.28696695 -0.1747638 0.72149998 9539728
-0.25468111 -0.17490703 0.72700018 10000532
-0.21169436 -0.17738676 0.72499996 9737621
-0.2048365 -0.17572732 0.72518748 9409169
-0.19601379 -0.1722858 0.72366673 9212048
-0.18668978 -0.17122133 0.7215001 9146513
-0.13096765 -0.17086539 0.72000003 8357514
-0.12508117 -0.17086536 0.72000015 8226183
-0.11507417 -0.17086534 0.72000015 8095112
-0.10506719 -0.17086537 0.72000015 8095112
-0.097767964 -0.17121902 0.72000009 8029063
-0.064305402 -0.1702715 0.72499996 7962756
-0.053075925 -0.17093934 0.72252947 7962755
-0.045706809 -0.17120926 0.72146422 7699838
0.086170942 -0.17070787 0.72433335 8291718
0.09528818 -0.17206115 0.72297293 8291462
0.10485946 -0.17238466 0.72428584 8291461
0.11502967 -0.17260726 0.72520453 8357253
0.12519671 -0.17359261 0.72400004 8422791
0.13525932 -0.1735926 0.72400016 8488069
0.1453477 -0.17362261 0.72412509 8553605
0.15500636 -0.17383237 0.72500014 8487812
0.16508286 -0.17442589 0.7250002 8487812
0.17515934 -0.17442589 0.7250002 8422276
0.18491252 -0.17458776 0.7250002 8356483
0.19609378 -0.17558175 0.72439998 8421762
0.20494439 -0.17641063 0.72343737 8421762
0.21504293 -0.17675267 0.72441208 8356483
0.22494505 -0.17679144 0.7250002 8290434
0.23518187 -0.17691313 0.72550005 8290176
0.24524389 -0.17689799 0.72543758 8355713
0.25497615 -0.17665669 0.72444469 8421505
0.26497027 -0.17698222 0.72361833 8355969
0.27495313 -0.17703535 0.72357166 8289920
0.28504229 -0.17711248 0.72389132 8093311
0.29504532 -0.17744254 0.7247417 8289920
0.30496135 -0.17711858 0.72576392 8289920
0.31529501 -0.17726156 0.7266596 8224386
0.32500225 -0.17777884 0.72659993 8093056
0.33359995 -0.17827745 0.72572005 8158848
0.34403995 -0.17901817 0.72471428 8093313
0.3552472 -0.17882656 0.72599995 8158593
0.36533761 -0.17882656 0.72599995 8158336
0.37491086 -0.17917368 0.72500014 8092799
0.38149676 -0.17892657 0.72400004 8158592
-0.37209079 -0.16506702 0.72300005 8619657
-0.36515978 -0.16540946 0.72450024 8619914
-0.35406795 -0.1664622 0.72315377 8488841
-0.34499091 -0.16717039 0.72445017 8554377
-0.33588934 -0.16805549 0.72478575 8488584
-0.32622126 -0.16905704 0.72589993 8751241
-0.20178218 -0.16955097 0.72700006 9080975
-0.19383314 -0.16815004 0.72733343 9080976
-0.18519256 -0.16785228 0.72554749 8818062
-0.17475125 -0.16742103 0.72525817 8555147
-0.16507025 -0.16789754 0.72500014 8291976
-0.15499376 -0.16789758 0.72500014 8423562
-0.14491729 -0.16789754 0.72500014 8357514
-0.13462988 -0.16805214 0.72496557 8357514
-0.12497262 -0.16837116 0.72449994 8160649
-0.11490304 -0.16837111 0.72449994 8225928
-0.10483353 -0.16837119 0.72449994 8095112
-0.095650896 -0.16826741 0.72514284 7963526
-0.085118093 -0.16802619 0.72555554 7963526
-0.074974619 -0.16789754 0.72500014 7963526
-0.064898126 -0.16789758 0.72500014 7963013
-0.054848466 -0.16798441 0.725375 7962755
-0.045988414 -0.16810699 0.7259047 7699838
0.086048439 -0.16729289 0.7271539 8357254
0.094696917 -0.1693469 0.72612506 8357254
0.10501039 -0.16970645 0.72766674 8225669
0.11279429 -0.16978419 0.72800004 8291462
-0.28350213 -0.1819521 0.73728567 9605777
-0.27555427 -0.18246885 0.7383334 9934227
-0.26445293 -0.18189217 0.73600006 10066325
-0.25963914 -0.18189222 0.73600006 10131603
-0.32057917 -0.17021339 0.73500001 8882829
-0.31305969 -0.1713547 0.73372 8817291
-0.30431849 -0.17374803 0.73413217 9013898
-0.29596928 -0.17431587 0.73583329 9276813
-0.28697306 -0.17929135 0.73557144 9671314
-0.27555421 -0.17944689 0.7383334 9802900
-0.26445293 -0.17887977 0.73600006 9934485
-0.23161341 -0.17275038 0.73300004 9672341
-0.22549406 -0.17397436 0.73652202 9737620
-0.21529797 -0.1740683 0.73298216 9540498
-0.20704167 -0.17185365 0.73121041 9343376
-0.19843706 -0.17025062 0.73000002 9080976
0.11887721 -0.17082958 0.73250002 8488839
0.1249967 -0.17119554 0.73149973 8423047
0.13472156 -0.17139313 0.73234391 8488070
0.14497404 -0.17148109 0.73272258 8553605
0.1551635 -0.17148748 0.7327503 8553861
0.16474867 -0.17148747 0.7327503 8488068
0.1747849 -0.1715041 0.73260033 8487556
0.18508868 -0.17154656 0.73285329 8356227
0.19483002 -0.17214622 0.73300028 8356483
0.20446345 -0.17252021 0.73375678 8356483
0.2148122 -0.1731499 0.73399985 8290690
0.22504723 -0.17382339 0.7349999 8290690
0.23498106 -0.17405988 0.73600006 8224897
0.24512593 -0.17400075 0.73575002 8224384
0.25470507 -0.1735606 0.73388892 8224897
0.26486915 -0.1727529 0.73523259 8290433
0.27560958 -0.17349821 0.73362499 8289920
0.28549775 -0.17367555 0.73437494 8026748
0.29535371 -0.1738234 0.73499995 8290176
0.30496827 -0.1738234 0.73499995 8224384
0.31518376 -0.17382339 0.73500007 8224127
0.32553488 -0.17436685 0.73500013 8289664
0.33569819 -0.17542171 0.73357439 8092799
0.34504145 -0.17600374 0.73381811 8027262
0.35535017 -0.17677973 0.73481268 8224384
0.3647536 -0.17689659 0.7348004 8158336
0.37494022 -0.17675404 0.73510522 8158079
0.3845019 -0.17642935 0.7344287 8158336
-0.37456477 -0.16225593 0.73305553 8684938
-0.36498642 -0.16242893 0.73381656 8750986
-0.35495535 -0.16244556 0.73527789 8619912
-0.34581617 -0.16328931 0.73499984 8488584
-0.33483765 -0.16543148 0.73350018 8554120
-0.32541904 -0.16666971 0.73457134 8751241
-0.31464624 -0.16817203 0.7366001 8751499
-0.30842766 -0.16871995 0.73900002 8751755
-0.21407528 -0.16876844 0.73657161 9343376
-0.20481309 -0.16695277 0.73542869 9080718
-0.19458015 -0.16482696 0.73478556 8949390
-0.18480293 -0.16361521 0.73512501 8686476
-0.17489882 -0.16362533 0.73442024 8554891
-0.16513683 -0.16388653 0.73420346 8423561
-0.1549512 -0.16403916 0.73380005 8489354
-0.14509839 -0.16417618 0.73494738 8489355
-0.13494529 -0.16435423 0.73574579 8226698
-0.12476333 -0.16441028 0.73599988 8160905
-0.11514333 -0.1649019 0.7355001 8095112
-0.10515282 -0.16487071 0.73488253 8095112
-0.094941325 -0.16472439 0.73517668 8029319
-0.085013032 -0.16477685 0.73493773 7963526
-0.075068735 -0.16477756 0.73447084 7963270
-0.065171421 -0.16473494 0.73475021 7963012
-0.055204865 -0.16452703 0.7342943 7962756
-0.046237685 -0.16475834 0.7342307 7634045
0.087374151 -0.16466582 0.73315793 8357253
0.095194824 -0.16634734 0.73391056 8357254
0.10496348 -0.16661553 0.7350893 8357254
0.11426876 -0.1682321 0.7342307 8357254
0.12486489 -0.16863751 0.73600006 8423046
0.13463083 -0.16880932 0.73675019 8422790
0.14509405 -0.1690703 0.73788887 8488325
0.15537235 -0.16909577 0.73799998 8553861
0.16502614 -0.16909575 0.73799998 8488068
0.17467993 -0.16909577 0.73799998 8422020
0.1849371 -0.16909577 0.73799998 8422019
0.19519427 -0.16909577 0.73799998 8422276
0.20320407 -0.16923325 0.73859996 8356483
0.26433533 -0.16992985 0.73899996 8158848
-0.37570256 -0.15950143 0.73610008 8750473
-0.36724496 -0.15981707 0.73700005 8619656
-0.27243519 -0.18058108 0.74300003 9934486
-0.3039844 -0.17109521 0.74142867 9013643
-0.29416752 -0.17223355 0.74390632 9276813
-0.28551322 -0.17368959 0.74394798 9408399
-0.27519274 -0.17500721 0.74247909 9605521
-0.26507911 -0.17449921 0.7417587 9671570
-0.25492811 -0.17386718 0.74436355 9803411
-0.24581349 -0.17361364 0.74568009 9803668
-0.23608096 -0.1717532 0.74550015 9540755
-0.2254926 -0.17132597 0.7424286 9409169
-0.21991034 -0.17076553 0.74000001 9343376
0.20842822 -0.17076553 0.74000001 8290690
0.21558978 -0.17107622 0.74088246 8290690
0.22529595 -0.17177655 0.74174982 8224897
0.23507679 -0.17183447 0.74199992 8224897
0.24551165 -0.17177179 0.74210709 8159104
0.25516537 -0.17127365 0.74221855 8224897
0.26500952 -0.17031811 0.74600005 8158848
0.27499989 -0.17119479 0.74141163 8355969
0.28517938 -0.17125909 0.74215609 8224642
0.29537833 -0.17144015 0.74318165 8290177
0.30532679 -0.17160259 0.74338716 8224383
0.31502602 -0.17155242 0.74366665 8224127
0.32490367 -0.17156953 0.74349999 8224127
0.33462936 -0.17156957 0.74349982 8224384
0.34439918 -0.17159125 0.74359387 8224127
0.35482183 -0.17226939 0.74444729 8158591
0.36466324 -0.17290668 0.74399996 8158591
0.37511566 -0.17295831 0.74422216 8223872
0.38532513 -0.17320813 0.74369228 8158336
0.39252782 -0.17240545 0.74615788 8026750
-0.36404207 -0.16011693 0.74400002 8685448
-0.35518128 -0.16023649 0.74455559 8620168
-0.34353215 -0.16134281 0.74218529 8685705
-0.33467665 -0.16186169 0.74363905 8817034
-0.32440886 -0.16333394 0.74454558 8882571
-0.31515363 -0.16480751 0.74552661 8882571
-0.30445489 -0.16755022 0.7450698 8882570
-0.29517853 -0.16777523 0.74711418 9079435
-0.28524214 -0.16767105 0.74726653 9211020
-0.27403966 -0.16754188 0.7464872 9474449
-0.26566494 -0.16675481 0.74669242 9474193
-0.25528353 -0.1683863 0.7463029 9539986
-0.24483164 -0.16826923 0.74775004 9474963
-0.23469672 -0.16819791 0.74700004 9343377
-0.22474113 -0.16645309 0.74512249 9277841
-0.21483864 -0.16453758 0.74370897 9080976
-0.20515352 -0.16259259 0.74376309 8817805
-0.19637835 -0.16192414 0.74353582 8817805
-0.18549199 -0.16096902 0.745125 8620940
-0.17510571 -0.16094202 0.74499995 8555147
-0.16475123 -0.16094205 0.74499995 8489354
-0.15500587 -0.16094202 0.74499995 8489354
-0.14526048 -0.16094202 0.74499995 8489611
-0.13496476 -0.16101404 0.74533337 8292491
-0.12446763 -0.16126579 0.74600017 8160905
-0.11496031 -0.16176869 0.74600023 8095112
-0.10506085 -0.16155185 0.74500006 8095112
-0.095315456 -0.16155191 0.74500006 8029319
-0.084985085 -0.16160008 0.74522233 7963526
-0.074658252 -0.16166027 0.74550009 7963013
-0.064830057 -0.16147053 0.74462509 8028549
-0.055041824 -0.16133501 0.74400014 7962757
-0.04669809 -0.16138104 0.74388254 7699581
0.088125959 -0.16158454 0.74180013 8357253
0.094764546 -0.1622486 0.74440002 8423046
0.10507377 -0.16277157 0.74500012 8423046
0.11501803 -0.16447254 0.74310637 8423046
0.12480415 -0.16495833 0.74445772 8423046
0.13498454 -0.16528121 0.74535722 8357254
0.14419559 -0.16646077 0.74457902 8422789
0.15541901 -0.16742538 0.74400014 8488068
0.16515128 -0.16742538 0.74400014 8488068
0.17488359 -0.16742538 0.74400014 8422276
0.18461585 -0.16742538 0.74400014 8487556
0.19495639 -0.16742538 0.74400002 8487555
0.20532995 -0.16775639 0.74412507 8356483
0.21481586 -0.16834123 0.74537504 8290688
0.22488418 -0.16858107 0.74643719 8355713
0.23466787 -0.1685953 0.74649978 8290433
0.24468078 -0.16852175 0.74690878 8224897
0.25498104 -0.16810046 0.74699998 8159105
0.26500952 -0.16787542 0.74600023 8290176
0.27508435 -0.16806829 0.74685717 8289920
0.28434536 -0.16874015 0.74712503 8224899
0.29507384 -0.16893777 0.74800009 8159104
0.30491734 -0.16897008 0.7481429 8159104
0.31468904 -0.16896291 0.74811119 8224127
0.32503918 -0.16893782 0.74800009 8355456
0.33482382 -0.16893779 0.74800009 8289663
0.34460849 -0.16893777 0.74800009 8224127
0.3548083 -0.16913541 0.7488749 8289921
0.3897711 -0.16916364 0.74900001 8224127
0.39344522 -0.16916364 0.74900001 8223870
-0.38292307 -0.15606192 0.74634486 8619914
-0.37537256 -0.15754499 0.74338108 8554377
-0.36538675 -0.15780272 0.7436924 8554376
-0.3556864 -0.15805434 0.74445462 8685705
-0.34468582 -0.15862077 0.74555558 8751498
-0.33490717 -0.15918814 0.74822217 8882827
-0.21325834 -0.15985994 0.74850005 9015183
-0.20489039 -0.1595396 0.7470001 8752268
-0.19546755 -0.15932602 0.74600005 8620683
-0.18549201 -0.15913916 0.74512506 8555147
-0.17510571 -0.15911245 0.745 8489354
-0.16475125 -0.15911245 0.745 8489354
-0.15500587 -0.15911245 0.745 8489354
-0.14526051 -0.15911245 0.745 8620940
-0.13496476 -0.15918367 0.74533343 8358283
-0.12471876 -0.15932602 0.74600005 8160905
-0.11496031 -0.15932602 0.74600005 8095112
-0.10506085 -0.15911245 0.745 8095112
-0.095315464 -0.15911245 0.745 8029320
-0.089833692 -0.15911245 0.74500006 8029319
-0.043426272 -0.15990172 0.74300003 5460823
0.088255666 -0.15647885 0.74699998 8291717
0.092044674 -0.15791623 0.74799997 8291460
0.36515141 -0.1706174 0.75000006 8027262
0.37508801 -0.17067426 0.75025004 8158334
0.38521099 -0.17105591 0.75000006 8223871
-0.32509854 -0.16100866 0.75100005 8882827
-0.31486982 -0.1614664 0.75400007 8882827
-0.30527565 -0.16271012 0.75270557 8882571
-0.2953276 -0.16281357 0.75273311 9013899
-0.28469747 -0.16320753 0.75146508 9014413
-0.27577576 -0.16331539 0.75144994 9145742
-0.26348555 -0.1630923 0.75212491 9343121
-0.25452656 -0.16349579 0.7527222 9343121
-0.24470818 -0.16334297 0.75328571 9277585
-0.2349852 -0.16373554 0.75213045 9146512
-0.22484834 -0.16152367 0.75217861 8949390
-0.21818519 -0.16084976 0.75200003 8818061
-0.085144483 -0.16060746 0.75199997 7963526
-0.075307541 -0.16060746 0.75199997 8028806
-0.065470599 -0.16060746 0.75199997 8028804
-0.055534292 -0.1603138 0.75062501 7962756
-0.046901271 -0.16018032 0.75000006 7567739
0.097807705 -0.16079426 0.75000006 8488839
0.10525496 -0.16092826 0.75062501 8423048
0.115343 -0.16130346 0.75237507 8488839
0.12592094 -0.16151729 0.75433326 8357253
0.13503201 -0.16143119 0.75585729 8422789
0.1458991 -0.16266622 0.75337523 8488069
0.15544923 -0.16318531 0.75257158 8422276
0.1652936 -0.16318536 0.75257158 8488069
0.17513847 -0.16326632 0.75294554 8488069
0.18501714 -0.16337121 0.75342882 8487812
0.19487275 -0.16337118 0.75342882 8422019
0.20485115 -0.16393532 0.75435287 8487555
0.21531735 -0.16448054 0.75568765 8421762
0.22554214 -0.16613746 0.75475001 8487298
0.23549186 -0.16619249 0.75499994 8355970
0.24524458 -0.16610996 0.7546249 8224897
0.25544438 -0.16464446 0.75537515 8159105
0.26520452 -0.16438571 0.75524998 8224640
0.27535585 -0.16454872 0.7560001 8421505
0.28509742 -0.16511211 0.75542295 8290434
0.29568937 -0.16664483 0.75424981 8159104
0.30512807 -0.16674742 0.75471407 8093311
0.31442761 -0.16738291 0.75523996 8224383
0.32499468 -0.16742858 0.75499988 8289920
0.33559796 -0.16748405 0.75525016 8355455
0.34536433 -0.1674286 0.75499994 8289663
0.35489306 -0.1675553 0.75557154 8289663
0.3650209 -0.16790755 0.75462884 8158336
0.37538919 -0.16794571 0.75456274 8158335
0.38522741 -0.16793165 0.75450021 8224128
0.39526811 -0.16765034 0.75600028 8158336
-0.39031032 -0.15279774 0.75600004 8686220
-0.38474762 -0.15279777 0.75600028 8685707
-0.37432843 -0.15395083 0.75320017 8685706
-0.36495796 -0.15412165 0.75343752 8554633
-0.35524118 -0.15469708 0.75356346 8620425
-0.34581211 -0.15517884 0.75431567 8882827
-0.33528072 -0.15682328 0.75400007 8882571
-0.32533363 -0.15832858 0.75583345 8882827
-0.31694996 -0.15874235 0.75700003 8882828
-0.29245836 -0.15861216 0.75816655 8948620
-0.2850171 -0.15871006 0.75734478 8882827
-0.27536654 -0.15855461 0.75690603 8883084
-0.26549879 -0.15857452 0.75699991 9014413
-0.25553459 -0.15859586 0.75790936 9145999
-0.24479318 -0.15837456 0.759 9146253
-0.23510672 -0.15857545 0.75733334 8817805
-0.22569296 -0.15808739 0.75558627 8818061
-0.21417895 -0.15744382 0.75474185 8752269
-0.20471737 -0.15630616 0.75505352 8620940
-0.19479069 -0.15633896 0.75521034 8686477
-0.18477227 -0.15629399 0.7549997 8489867
-0.17488399 -0.15628307 0.75494617 8489354
-0.16488974 -0.15670668 0.75399977 8423818
-0.15502663 -0.15670666 0.75399995 8489611
-0.14518687 -0.15673235 0.75412488 8555404
-0.13513726 -0.15696216 0.75470585 8358283
-0.12498889 -0.1569145 0.7549997 8160904
-0.11511269 -0.15691452 0.75500005 8095111
-0.10498109 -0.15691462 0.75552934 8095368
-0.09474805 -0.15692736 0.7550624 8029319
-0.08492025 -0.15701722 0.75550014 7963526
-0.075025804 -0.15699156 0.75537515 7963526
-0.065026186 -0.15696558 0.75518364 8094341
-0.055041045 -0.15694049 0.75512499 7962756
-0.046757601 -0.15683521 0.75387514 7567484
0.096305802 -0.15730107 0.75471431 8357253
0.10485901 -0.15814932 0.75542432 8423048
0.11429223 -0.15865909 0.75673097 8357254
0.12421998 -0.15980016 0.75400001 8357253
0.1279045 -0.16009039 0.76125002 8423046
0.13550572 -0.16024812 0.76200002 8422790
0.14493336 -0.16033825 0.76242864 8553862
0.15439761 -0.16045843 0.76300001 8488069
0.16500224 -0.16045843 0.76300001 8488069
0.17543301 -0.1603007 0.76225007 8488069
0.18546771 -0.16035327 0.76250005 8422276
0.19556853 -0.16045843 0.76300001 8356483
0.20591733 -0.16102295 0.76389998 8422276
0.21484572 -0.16150525 0.76500005 8356483
0.22552994 -0.16271137 0.7632308 8421762
0.23508735 -0.16277593 0.76453304 8355969
0.2448729 -0.16247681 0.76423526 8487554
0.25392091 -0.1621809 0.76418191 8290690
0.26487923 -0.16150525 0.7650001 8290435
0.27493185 -0.16153164 0.7651251 8553347
0.285992 -0.16200753 0.76505256 8421763
0.29529628 -0.16263424 0.76409751 8224897
0.30408186 -0.16316217 0.76399982 8224897
0.31524754 -0.16442092 0.76199979 8158847
0.32489291 -0.1646145 0.76199973 8289920
0.33497059 -0.16466856 0.76224989 8355456
0.34579024 -0.16386583 0.76495558 8289663
0.35524687 -0.1635993 0.76605386 8289663
0.36479703 -0.16484457 0.76280659 8224127
0.37548432 -0.1650214 0.76099992 8224128
0.38546908 -0.16530024 0.76228577 8224129
0.39537784 -0.16553645 0.7633751 8224129
0.40335205 -0.16437802 0.7650001 8289922
-0.39205289 -0.15108961 0.76300001 8752012
-0.38456726 -0.15108959 0.76300013 8685707
-0.37470797 -0.15113911 0.76325011 8554377
-0.36460564 -0.15108959 0.76300013 8554632
-0.35520455 -0.15133712 0.76425004 8751497
-0.34395498 -0.15228049 0.76377797 8948621
-0.33464792 -0.152932 0.76430202 9014156
-0.32589102 -0.15423541 0.76437795 8948363
-0.31462499 -0.15615396 0.76363623 8817291
-0.30523932 -0.15714741 0.76255077 8882827
-0.2959621 -0.15649828 0.76309091 8882827
-0.2851322 -0.15566547 0.764 8817034
-0.27413812 -0.1546046 0.76592302 8817291
-0.26534915 -0.15448338 0.76614308 8883084
-0.25535765 -0.15579285 0.76462507 9014413
-0.24547742 -0.15586925 0.76500005 9080716
-0.23435615 -0.15489471 0.76527303 8752011
-0.22512592 -0.15388428 0.76513332 8817805
-0.21517041 -0.15350923 0.76326674 8620940
-0.20482402 -0.15211183 0.7650001 8620940
-0.19544245 -0.15211189 0.76500005 8620940
-0.1854059 -0.15208703 0.76487499 8620684
-0.17502426 -0.15201311 0.764 8489354
-0.16501676 -0.15236372 0.7631253 8489354
-0.15500815 -0.15233877 0.76300031 8424331
-0.14540772 -0.15259483 0.76331061 8490124
-0.13537765 -0.15333928 0.76487499 8161161
-0.12539351 -0.15336429 0.76500005 8226698
-0.11538651 -0.15336435 0.76500005 8095112
-0.10537951 -0.15336435 0.76500005 8095112
-0.095387377 -0.15338938 0.76512498 8095112
-0.085380189 -0.15338938 0.7651251 7963526
-0.075358532 -0.15336435 0.76500005 7963526
-0.065351531 -0.15336433 0.76500005 8094598
-0.055283993 -0.15318893 0.76412493 7963013
-0.046836965 -0.15240777 0.76471436 7173239
0.095609382 -0.15320684 0.76357144 8357254
0.10485385 -0.15487455 0.76379997 8423046
0.11553743 -0.15589862 0.76484233 8423046
0.12506364 -0.15681539 0.76496136 8423047
0.1354463 -0.15730008 0.76589978 8488583
0.14427799 -0.15754433 0.76582783 8619912
0.15439761 -0.15858465 0.76300013 8488069
0.16500224 -0.15858465 0.76300019 8488069
0.17609937 -0.15768112 0.76514298 8356996
0.18490647 -0.15740278 0.76640004 8422532
0.19427329 -0.15806633 0.76463646 8356484
0.20515649 -0.1587628 0.76385719 8356483
0.2148457 -0.15900032 0.7650001 8225668
0.2246511 -0.1591482 0.76614285 8290947
0.23319241 -0.15894343 0.76775002 8356483
0.2551209 -0.15978307 0.76574999 8356226
0.26487926 -0.15962659 0.76499999 8224897
0.27493188 -0.15965267 0.76512504 8684676
0.28526565 -0.15983523 0.76600003 8422019
0.29090196 -0.15983523 0.76600003 8290690
-0.39205289 -0.14921583 0.76300001 8817805
-0.38456726 -0.14921583 0.76300001 8554634
-0.37470794 -0.14926472 0.76324999 8489097
-0.36460564 -0.14921583 0.76300001 8423303
-0.35520455 -0.1494603 0.76424998 8620169
-0.34521997 -0.14973733 0.76566666 8883084
-0.33892587 -0.1499981 0.76700002 9014413
-0.046203315 -0.14913023 0.76900005 6712943
0.095635176 -0.1499981 0.76700002 8423046
0.23888689 -0.16023734 0.77400005 8290690
0.24501532 -0.16010796 0.77337509 8421762
0.25121784 -0.16003032 0.77300006 8355711
0.28597662 -0.16003032 0.77300012 8422018
0.29509881 -0.1601782 0.77371442 8290434
0.30653399 -0.16146331 0.77306241 8224641
0.31510678 -0.16206084 0.77335477 8289920
0.32515195 -0.16208148 0.77374989 8289920
0.33513743 -0.16191715 0.77324235 8355456
0.34335274 -0.16148098 0.77270019 8224127
0.35514355 -0.16072902 0.77637506 8289920
0.36605352 -0.16227816 0.77206463 8289663
0.37461904 -0.16324486 0.77400011 8224127
0.38489512 -0.16396822 0.7736668 8158336
0.39545864 -0.16305117 0.77340525 8224127
0.40419519 -0.16239649 0.77526665 8289920
0.41069448 -0.16149446 0.77700001 8421249
-0.34012067 -0.15009987 0.77400005 9080206
-0.33474836 -0.15024532 0.77475005 8948618
-0.32401818 -0.15142463 0.77234799 9079691
-0.3152886 -0.15177158 0.77236366 8817547
-0.30528277 -0.15223654 0.77199996 8751754
-0.29487783 -0.15207812 0.7712003 8751754
-0.28467521 -0.1520703 0.77131748 8817547
-0.27613667 -0.15176305 0.77308339 8752011
-0.26419264 -0.15162839 0.7741819 8752011
-0.25493839 -0.15232256 0.77245045 8883084
-0.24488232 -0.15235171 0.77260035 8817804
-0.23584698 -0.15194501 0.77328587 8686218
-0.22499417 -0.15076128 0.77414292 8883085
-0.21573636 -0.15107416 0.77322233 8686477
-0.20487228 -0.15102482 0.77225 8686733
-0.19470617 -0.15097593 0.77199996 8555147
-0.18520519 -0.15094797 0.77185714 8555147
-0.1755437 -0.15078034 0.77099997 8555147
-0.16524361 -0.1505848 0.77000004 8555147
-0.15517122 -0.1505848 0.77000004 8424331
-0.14435162 -0.1511032 0.7705 8358538
-0.13537712 -0.15160787 0.77200007 8226952
-0.12527856 -0.15160787 0.77200007 8292490
-0.11517999 -0.15160787 0.77200007 8095112
-0.10508145 -0.15160787 0.77200007 8095369
-0.094982892 -0.15160787 0.77200007 8029319
-0.084884316 -0.15160787 0.77200007 8029319
-0.074785754 -0.15160787 0.77200007 7963526
-0.064614594 -0.15143603 0.77112496 8029063
-0.054501478 -0.15136239 0.77074999 7963268
-0.048781492 -0.15121511 0.77000004 7766659
0.099786378 -0.15184543 0.77000004 8423046
0.1050439 -0.151714 0.77289659 8423046
0.11455082 -0.15235865 0.77312005 8357253
0.12514524 -0.15283142 0.77499986 8423046
0.13549528 -0.15348114 0.77538705 8423047
0.14557646 -0.15425611 0.7750591 8422789
0.15463194 -0.15515877 0.77400029 8357253
0.16465205 -0.15561666 0.77357173 8356996
0.17405251 -0.15527804 0.77458352 8422789
0.18494315 -0.15429911 0.7760002 8291460
0.19561741 -0.15547961 0.77378607 8356740
0.20509237 -0.15592006 0.77400005 8290947
0.21514885 -0.15602042 0.77512479 8290947
0.22516277 -0.15606989 0.77599972 8094081
0.23452212 -0.15732315 0.77422225 8225411
0.24501531 -0.15757565 0.77337503 8224898
0.25527939 -0.15651034 0.77511078 8159104
0.26453424 -0.15646756 0.77349061 8159104
0.27467349 -0.1566281 0.77499992 8487298
0.28378105 -0.15691088 0.77581829 8421505
0.29509881 -0.15827812 0.77371424 8290177
0.3047404 -0.15868726 0.77571422 8224640
0.31454346 -0.15915485 0.778 8224384
0.32449871 -0.1593594 0.77900016 8289920
0.33513257 -0.15926847 0.77855569 8289920
0.34515166 -0.15889916 0.77675015 8224127
0.35514358 -0.15882239 0.77637506 8289919
0.3651593 -0.15903795 0.77742863 8355712
0.37178698 -0.15915483 0.77800006 8224127
0.39646646 -0.15935943 0.7790001 8158335
0.40420118 -0.15932307 0.77820003 8355456
0.41069448 -0.15958631 0.77700001 8487042
-0.40115225 -0.14432116 0.77700001 8751243
-0.39483282 -0.14589728 0.77357173 8685707
-0.38553864 -0.14626274 0.77386236 8620171
-0.37539917 -0.14633572 0.77425021 8554634
-0.36530176 -0.14640842 0.77388918 8423304
-0.35512996 -0.14705822 0.77411771 8620425
-0.34564447 -0.14750087 0.77536356 8882827
-0.33474833 -0.14834268 0.77474993 8948620
-0.32513735 -0.14858204 0.77600002 8882827
-0.31524312 -0.1487017 0.7766251 8751498
-0.30483699 -0.14858204 0.77600002 8686218
-0.29468611 -0.14858204 0.77600002 8686218
-0.2845352 -0.14858204 0.77600002 8686218
-0.27476683 -0.14844526 0.77528566 8686218
-0.26541561 -0.14853416 0.77574998 8751755
-0.25566909 -0.14863721 0.77606672 8817547
-0.2453602 -0.14931341 0.77649999 8817804
-0.2349752 -0.14916919 0.77575004 8752012
-0.22499418 -0.14886014 0.77414292 8752013
-0.21490568 -0.1492438 0.7730667 8686477
-0.20480351 -0.1480585 0.77608091 8686733
-0.1950012 -0.14797805 0.77619976 8686733
-0.18502523 -0.14786513 0.77613145 8620940
-0.17534737 -0.14783148 0.77489185 8554892
-0.16538259 -0.14759675 0.77420032 8554893
-0.15525529 -0.14759678 0.77420032 8424076
-0.14522424 -0.14769658 0.7747252 8292491
-0.13534936 -0.14797807 0.77619976 8292490
-0.12519588 -0.14797807 0.77619976 8226698
-0.11498068 -0.14808798 0.77660954 8160905
-0.10482468 -0.14824729 0.77759975 8160905
-0.094652869 -0.14824724 0.77759975 8029831
-0.085216522 -0.14849886 0.77730286 8095366
-0.075294331 -0.14881706 0.77724987 8029319
-0.065054514 -0.14864953 0.77637494 8029574
-0.054833848 -0.14847046 0.77543759 7963780
-0.047333892 -0.14792076 0.77484614 7042678
0.096998848 -0.14745267 0.77566683 8488839
0.10526143 -0.14894104 0.77787507 8423046
0.11114284 -0.14915645 0.77900004 8423046
0.3774192 -0.16105382 0.78000009 8224127
0.38535252 -0.16168648 0.78100008 8224127
0.39187375 -0.1614795 0.78000009 8158334
0.11574943 -0.15126343 0.78000003 8423046
0.12527473 -0.15102799 0.78186661 8423046
0.13533589 -0.15113184 0.78262502 8357253
0.14505373 -0.15125942 0.7832858 8357253
0.1546292 -0.15122837 0.78312504 8357254
0.16549422 -0.1520018 0.78440917 8356997
0.1754217 -0.15213609 0.78449994 8357253
0.18521363 -0.15174827 0.78250021 8356997
0.19514965 -0.15201144 0.78385717 8422277
0.20505822 -0.15223305 0.78499991 8422276
0.21476433 -0.15228847 0.78528577 8356484
0.22459759 -0.15242697 0.78600001 8422276
0.23520409 -0.15357025 0.78342873 8356483
0.24486296 -0.15376076 0.78299981 8290690
0.25487173 -0.15272337 0.78533322 8224895
0.26538631 -0.15223303 0.78499991 8159102
0.27506387 -0.15226075 0.78514278 8421505
0.28617296 -0.15374939 0.78359997 8355969
0.29501441 -0.15441997 0.78310192 8290433
0.30472267 -0.15489079 0.78548944 8290433
0.31519699 -0.15724856 0.78437501 8355713
0.32531065 -0.15748838 0.7855714 8224127
0.33491099 -0.15747407 0.78549999 8224127
0.3446919 -0.15724854 0.78437513 8224640
0.35478416 -0.15717335 0.78400016 8289919
0.36459932 -0.15725927 0.78442854 8289919
0.37539056 -0.1578103 0.78535712 8289921
0.38526872 -0.15818992 0.78555185 8289922
0.39453733 -0.15794718 0.78644454 8224129
0.40493891 -0.15748519 0.78555542 8224128
0.41299766 -0.15801644 0.78499991 8289920
-0.40258563 -0.14168027 0.78350002 8751245
-0.3951517 -0.14177071 0.78400016 8554379
-0.38501766 -0.14181592 0.78425008 8488842
-0.37464067 -0.14177066 0.78400016 8488841
-0.36471841 -0.14218144 0.78400016 8488841
-0.35491976 -0.14247304 0.78433347 8620169
-0.3442463 -0.14360619 0.78517085 8882827
-0.33515117 -0.1448584 0.78435987 8882827
-0.3253375 -0.14528355 0.78568751 8882827
-0.31506145 -0.14528354 0.78568751 8685962
-0.3048777 -0.145273 0.78493315 8685963
-0.29522321 -0.14506559 0.7852 8751498
-0.28526324 -0.14515711 0.78500003 8686218
-0.27499455 -0.14515717 0.78499961 8751754
-0.26480898 -0.1452031 0.78524989 8751754
-0.25490278 -0.1456743 0.78562516 8752011
-0.24510299 -0.14590485 0.78557169 8752011
-0.23496486 -0.14565352 0.78501946 8817805
-0.22478952 -0.14570479 0.78449953 8686477
-0.21470013 -0.14579929 0.78421128 8752526
-0.20466317 -0.14406259 0.78599983 8686733
-0.19530348 -0.1444822 0.78600007 8686733
-0.18526869 -0.14461395 0.78550005 8620940
-0.1747985 -0.14445284 0.78462499 8620684
-0.16504319 -0.14433777 0.7840001 8554893
-0.15542862 -0.14433779 0.78400016 8424077
-0.14533235 -0.14449888 0.78487509 8358028
-0.13526174 -0.144706 0.78600001 8292491
-0.12498002 -0.14470603 0.78600001 8226698
-0.11469833 -0.14470601 0.78600001 8160905
-0.10505924 -0.14470598 0.78600013 8160648
-0.095420152 -0.14470598 0.78600001 8095368
-0.084771253 -0.14507367 0.78599989 8029829
-0.074856758 -0.14534943 0.78599983 8029574
-0.064492911 -0.14516449 0.78499991 8029573
-0.054306336 -0.14444748 0.78506237 7897987
-0.047822252 -0.14350079 0.78396016 6976629
0.097879536 -0.1425941 0.78499991 8554376
0.10431106 -0.14530683 0.78589183 8488839
0.11514318 -0.1480999 0.78418189 8423046
0.12339161 -0.14823793 0.78570825 8423046
0.13533591 -0.14920989 0.78262508 8423046
0.14505373 -0.14933585 0.78328574 8357253
0.15462923 -0.14930521 0.78312504 8423046
0.16513729 -0.14954351 0.78437501 8356996
0.17542168 -0.14956737 0.7845 8422789
0.18521364 -0.14918604 0.78250009 8356997
0.19109255 -0.14928138 0.78300005 8488071
0.19717407 -0.15099725 0.79200006 8488071
0.20494424 -0.15099727 0.79200011 8356482
0.2146569 -0.15099727 0.79200006 8356482
0.22501707 -0.15099727 0.79200006 8356483
0.23498447 -0.15116067 0.79285723 8356483
0.24475105 -0.15118791 0.7930001 8356482
0.25496182 -0.15109257 0.79250008 8224895
0.26499289 -0.15090193 0.79150003 8355711
0.2746287 -0.15086107 0.79128563 8421504
0.28472194 -0.15106875 0.79237509 8487297
0.29565164 -0.15085386 0.79372734 8487297
0.30502263 -0.15084727 0.79462498 8487041
0.31494954 -0.1531112 0.79290473 8421249
0.32501823 -0.15327649 0.79375005 8289919
0.33499756 -0.15318161 0.79386353 8289919
0.3451871 -0.15360244 0.79418772 8355455
0.35531041 -0.15350142 0.79426682 8355712
0.36524323 -0.15318705 0.79456276 8355711
0.37546116 -0.15355925 0.79521453 8355456
0.38495785 -0.15346701 0.7953999 8355458
0.39504567 -0.15359248 0.79537493 8289664
0.40461558 -0.15351999 0.79433322 8158335
0.41497424 -0.15350442 0.79493767 8158592
0.42126581 -0.15195052 0.79700011 8092542
-0.40435281 -0.14039572 0.79071426 8554635
-0.39511114 -0.14055742 0.79162502 8488587
-0.38523838 -0.14049719 0.79128581 8423048
-0.37492424 -0.14026891 0.79000002 8619657
-0.36459023 -0.14026891 0.79000002 8554634
-0.35464585 -0.14042427 0.79087496 8554633
-0.34511635 -0.14075719 0.79275 8882827
-0.33553961 -0.14174056 0.79462498 8817291
-0.32530013 -0.14180744 0.79500002 8751754
-0.3147026 -0.14171825 0.79449999 8686218
-0.30482292 -0.14165457 0.79414284 8620425
-0.29479951 -0.14151761 0.79337507 8620169
-0.28450787 -0.14156222 0.79362506 8686218
-0.27442855 -0.14171827 0.79449999 8751498
-0.26485345 -0.14180744 0.79500002 8751755
-0.25510398 -0.14180744 0.79500002 8752012
-0.24470453 -0.14180744 0.79500002 8817804
-0.23495507 -0.14180745 0.79500002 8817805
-0.22520563 -0.14180747 0.79500002 8686476
-0.21526374 -0.14168003 0.79428571 8686733
-0.20525514 -0.14149532 0.79325008 8752269
-0.19461864 -0.1420434 0.7930001 8752783
-0.18492548 -0.14197186 0.79228562 8489611
-0.17506354 -0.14185345 0.79162502 8555148
-0.16487321 -0.14162344 0.79146171 8424077
-0.15456393 -0.14141254 0.79196173 8358284
-0.14529464 -0.14152554 0.79343748 8358027
-0.13505656 -0.14167061 0.79425001 8226698
-0.12482678 -0.14171211 0.79412901 8160905
-0.11525289 -0.14167061 0.79425013 8160905
-0.10534656 -0.14209984 0.79300004 8160649
-0.094973296 -0.14209986 0.79300004 8095368
-0.084600031 -0.14209987 0.79300004 8029574
-0.074550934 -0.14177407 0.79299998 7963781
-0.065448917 -0.14167088 0.7922222 8029317
-0.056305457 -0.14192985 0.790353 8029573
0.10692415 -0.14275287 0.79247379 8488839
0.11519729 -0.14326966 0.79333335 8357253
0.12565537 -0.14557196 0.79426503 8423046
0.13529845 -0.14676197 0.793688 8357253
0.14504844 -0.14678058 0.79378611 8423045
0.15482511 -0.14681904 0.79400033 8422789
0.16538189 -0.14697129 0.79481262 8357253
0.17516977 -0.14700642 0.79500008 8423046
0.18486047 -0.14696078 0.79475021 8357253
0.19521184 -0.14692655 0.79456264 8357254
0.2049576 -0.14692815 0.79457158 8356740
0.21473414 -0.14694937 0.79468757 8488324
0.22525775 -0.14709163 0.79553217 8356482
0.23499073 -0.14715859 0.79580986 8422275
0.24483049 -0.14824764 0.79466677 8356482
0.25482446 -0.14744754 0.79532564 8290688
0.26509202 -0.14749768 0.79412514 8421504
0.27474073 -0.14744799 0.79385722 8421504
0.28365755 -0.14842035 0.79336375 8487297
0.29382133 -0.1479886 0.79645449 8487298
0.3050226 -0.1488958 0.79462504 8487297
0.31548247 -0.14923377 0.79642862 8355713
0.32507151 -0.14915346 0.796 8355455
0.3350634 -0.14896607 0.79500002 8289920
0.34568027 -0.14934085 0.79699999 8355454
0.35524783 -0.14952822 0.79799998 8421248
0.3634243 -0.14940329 0.79733342 8421505
-0.41044536 -0.1359504 0.79500002 8554634
-0.4046258 -0.13691324 0.79365802 8488841
-0.39515179 -0.13738467 0.79447079 8488841
-0.38443789 -0.13593389 0.79510671 8357512
-0.37527236 -0.13537367 0.79470706 8488841
-0.36481538 -0.13506335 0.79365647 8488584
-0.35539082 -0.13598147 0.79467297 8423305
-0.34482563 -0.13736376 0.79567522 8685706
-0.33615106 -0.13799216 0.79607159 8817035
-0.3253001 -0.13920431 0.79500002 8685963
-0.31470263 -0.13911676 0.79449999 8751499
-0.30561805 -0.1394486 0.7943334 8686218
-0.29304832 -0.13834295 0.79568744 8620169
-0.2858904 -0.13773179 0.79617864 8686218
-0.27442855 -0.13976714 0.79450005 8686218
-0.26485342 -0.1398551 0.79500002 8752011
-0.25510398 -0.1398551 0.79500002 8817804
-0.24470454 -0.1398551 0.79500002 8817804
-0.23486187 -0.1384207 0.79799986 8752269
-0.22507562 -0.1384207 0.79799986 8620940
-0.21558358 -0.13836001 0.79720008 8686733
-0.20525512 -0.13954724 0.79325008 8620940
-0.19395116 -0.13843736 0.79585016 8621453
-0.18531606 -0.13803275 0.79612923 8490124
-0.17489542 -0.13794856 0.79528129 8424075
-0.16477309 -0.13788114 0.79529637 8424333
-0.15547755 -0.13763712 0.79555559 8358284
-0.14503975 -0.13766202 0.79737514 8226698
-0.1352322 -0.13811371 0.79800016 8160905
-0.12493088 -0.13842313 0.79800004 8160905
-0.11579704 -0.13842316 0.79800004 8160905
