# .PCD v0.7 - Point Cloud Data file format
VERSION 0.7
FIELDS x y z rgb
SIZE 4 4 4 4
TYPE F F F U
COUNT 1 1 1 1
WIDTH 1122
HEIGHT 1
VIEWPOINT 0 0 0 1 0 0 0
POINTS 1122
DATA ascii
-0.23511203 -0.19537385 0.65469098 8684679
-0.22539273 -0.19598284 0.65606731 8881799
-0.21706055 -0.19781682 0.65717959 9604491
-0.18341887 -0.19432144 0.65900022 9736587
-0.17913704 -0.19307214 0.65899998 9802380
-0.11306658 -0.19437179 0.65769595 8355970
-0.10485502 -0.19463231 0.65612757 8423306
-0.094865061 -0.19475855 0.65475231 8291722
-0.085116006 -0.19350441 0.6542502 8357515
-0.075531811 -0.19247143 0.65478694 8226187
-0.064933434 -0.19205897 0.65373355 8225930
-0.055068087 -0.19193698 0.65355331 8225928
-0.044911474 -0.19193472 0.6530835 8291721
-0.034932099 -0.19166721 0.65239996 8225928
-0.026139444 -0.19036599 0.65250009 8291721
-0.014493435 -0.1906013 0.65300006 8357514
-0.0050590201 -0.1903902 0.65166676 8423307
0.00027176974 -0.19019543 0.65100002 8423307
0.029368972 -0.1903749 0.65900004 9277585
0.036289986 -0.19066201 0.655375 9474451
0.045035694 -0.19081189 0.65457153 9671572
0.055169843 -0.19105123 0.65468001 10065813
0.064881057 -0.19094983 0.65491676 10000279
0.075156055 -0.19113682 0.65422237 9606037
0.084985569 -0.19073316 0.65221739 9277586
0.096087202 -0.19130944 0.65415794 8948622
0.10527951 -0.19255631 0.65214318 8685706
0.114297 -0.19235617 0.65265393 8488328
0.12506905 -0.19096863 0.65512502 8356741
0.13500518 -0.19136083 0.65499985 8290692
0.1450803 -0.19138099 0.65491825 8225155
0.15527488 -0.1915305 0.65566653 8094083
0.16503017 -0.19165128 0.65599978 8159619
0.17501171 -0.19168204 0.65587485 8290691
0.18518981 -0.19161995 0.65612751 8224643
0.19506423 -0.1916513 0.65599978 8224899
0.20504008 -0.19168204 0.65587497 8422021
0.21501346 -0.19165134 0.6559999 8224900
0.22488543 -0.19161998 0.65612763 8290949
0.23506843 -0.19168203 0.65587503 8159363
0.24527492 -0.19186625 0.65583658 8290692
0.25490266 -0.19204812 0.65578562 8356228
0.26527184 -0.1922828 0.65527856 8421508
0.27499443 -0.19418217 0.65280354 8421508
0.28513646 -0.19436634 0.65250015 8487558
0.29436362 -0.19368029 0.65450001 8618629
0.30543548 -0.1926288 0.65588665 8355204
0.31251231 -0.19195995 0.65794122 7565175
-0.33363312 -0.18539697 0.6540516 9408661
-0.32573864 -0.18728568 0.65526646 9277077
-0.31582332 -0.18862285 0.65607888 9079953
-0.30546588 -0.18885572 0.65748 8948621
-0.29497373 -0.18875657 0.6590001 8685963
-0.28527579 -0.18875653 0.6590001 8751243
-0.27611658 -0.18875656 0.65900004 8619657
-0.181677 -0.18590513 0.6590001 9014155
-0.17798254 -0.18459503 0.65900022 9145228
-0.11448402 -0.18929598 0.65900004 8681076
-0.10532483 -0.18929599 0.65899998 8291721
-0.095003501 -0.18912363 0.6584 8357514
-0.085260577 -0.18900873 0.65800005 8291723
-0.071165353 -0.18979712 0.65700001 8095114
-0.065256804 -0.18979713 0.65700001 8095114
-0.055051155 -0.18979713 0.65700001 8291721
-0.044816975 -0.18966872 0.65655559 8357514
-0.035107221 -0.18941194 0.65566671 8291721
-0.023392871 -0.18849607 0.65437514 8291721
-0.015780572 -0.18849979 0.65576947 8357514
-0.0050894255 -0.18831287 0.65560025 8291721
0.004785181 -0.187143 0.65465629 8489099
0.010950002 -0.18650341 0.65300006 8686220
0.029368972 -0.18821709 0.65900004 9277585
0.034222115 -0.18832774 0.65778577 9474194
0.044992369 -0.18842918 0.65715408 9868435
0.055833615 -0.18866514 0.6572001 10328470
0.063412011 -0.18871504 0.65862507 10328984
0.086228713 -0.188813 0.65480006 9343378
0.093888722 -0.18867439 0.6576317 9146000
0.11988321 -0.18875653 0.65900004 8357255
0.12527096 -0.18875656 0.6590001 8225669
0.13496891 -0.18875657 0.6590001 8291205
0.14466688 -0.18875654 0.6590001 8356227
0.15490359 -0.18875657 0.6590001 8225412
0.16514033 -0.18875657 0.6590001 8225154
0.17458475 -0.18878829 0.65900004 8356228
0.18507501 -0.18929599 0.65899998 8290438
0.19531174 -0.18929599 0.65899998 8290691
0.20500971 -0.18929599 0.65899998 8553349
0.21470767 -0.18929599 0.65899998 8224644
0.2249444 -0.18929599 0.65899998 8291205
0.23518109 -0.18929599 0.65899998 8225412
0.24487907 -0.18929599 0.65899998 8290692
0.25511581 -0.18929599 0.65899998 8290692
0.26535255 -0.18929599 0.65899998 8356228
0.27127904 -0.18929598 0.65900004 8487301
-0.21178444 -0.20092896 0.66000003 10918030
-0.20479332 -0.20114769 0.66100007 12628647
-0.19865392 -0.20021409 0.66300005 10854038
-0.27113962 -0.19066377 0.66000003 8554634
-0.2652041 -0.19066378 0.66000003 8423048
-0.25495186 -0.19066378 0.65999997 8619144
-0.24502842 -0.19092055 0.66088897 8291208
-0.23514697 -0.19079217 0.66044444 8487817
-0.22368081 -0.19099544 0.66039997 8619657
-0.21433106 -0.19398189 0.66186053 8882055
-0.20499131 -0.19550428 0.6633116 9274238
-0.19513863 -0.19502214 0.66238427 9473931
-0.18807729 -0.19394343 0.66049999 9408394
-0.13218139 -0.19236286 0.66399986 9080208
-0.12471687 -0.1936319 0.66303617 9407884
-0.11741932 -0.19372879 0.66132009 9206131
-0.081030041 -0.19044498 0.66300005 8423309
-0.075046204 -0.19038752 0.66280007 8226187
-0.064670995 -0.19015774 0.66200012 8095114
-0.054992154 -0.19038112 0.66277784 8291721
-0.045203224 -0.19022158 0.66222233 8357514
-0.037068367 -0.19015773 0.66200012 8226441
-0.024657315 -0.19044499 0.66300005 8291721
0.03588865 -0.19066377 0.66000003 9539987
0.051536843 -0.19066377 0.66000003 10065559
0.06880381 -0.19066377 0.66000003 10000279
0.074763946 -0.19072798 0.66022223 9737365
0.081754036 -0.19066377 0.66000003 9409171
0.099560596 -0.19066377 0.66000003 8948622
0.10495654 -0.19066378 0.66000003 8817293
0.11466919 -0.19066378 0.66000003 8423048
0.27654707 -0.19174433 0.65999997 8487301
0.28518051 -0.19174433 0.65999991 8553094
0.29489321 -0.19174433 0.65999991 8618887
0.3030535 -0.19138189 0.66249996 8487301
0.31386203 -0.19094764 0.66474998 8289411
-0.34105748 -0.18184625 0.662 9868700
-0.33480397 -0.1818642 0.66339129 9605526
-0.32464954 -0.18273561 0.66428357 9474196
-0.31518692 -0.18532184 0.66477424 9211023
-0.30512354 -0.18591623 0.66589546 8948365
-0.29497135 -0.18593399 0.66630775 8620427
-0.28524598 -0.18608709 0.6668573 8554634
-0.2749573 -0.18631531 0.66634297 8685450
-0.26498199 -0.18705003 0.66509217 8619914
-0.25493306 -0.187315 0.66510832 8488328
-0.24488744 -0.18734755 0.66545337 8422536
-0.2349395 -0.18605904 0.66461706 8553608
-0.22435388 -0.18599977 0.66346598 8684936
-0.21546011 -0.18607645 0.66602546 8487556
-0.20522872 -0.18696374 0.66568357 8746868
-0.19601469 -0.18690869 0.66304898 8751241
-0.18687543 -0.18577485 0.66047043 8882827
-0.13218139 -0.18692733 0.66399974 9146001
-0.12476594 -0.18720728 0.66500014 9014415
-0.11449251 -0.1857608 0.66428566 8814202
-0.1050646 -0.18696976 0.66416669 8028549
-0.095039256 -0.18695438 0.66442108 8291978
-0.085127227 -0.18731232 0.66538858 8291721
-0.075065821 -0.1873627 0.665263 8226442
-0.064964063 -0.18720157 0.66500014 8160907
-0.055262152 -0.18749498 0.66603667 8226442
-0.045097686 -0.18746732 0.66620654 8226442
-0.034741014 -0.18736348 0.66485935 8095112
-0.025705125 -0.18761143 0.66399997 8160648
-0.014228597 -0.18689665 0.66372728 8291721
-0.0044683442 -0.18622021 0.66554558 8291721
0.0046224478 -0.18497813 0.66483313 8423306
0.014718867 -0.18531756 0.66573691 8620427
0.025937831 -0.18565172 0.66602093 9145742
0.035261896 -0.18583012 0.66408676 9539986
0.044073239 -0.18586947 0.66576946 9999761
0.054147664 -0.18722847 0.66490918 10460055
0.065636024 -0.18756044 0.66542876 10460312
0.075200506 -0.18802923 0.66407418 10000279
0.084580444 -0.18775342 0.66484118 9540244
0.094918072 -0.18650186 0.66495568 9277328
0.10478118 -0.18826917 0.66300017 8883085
0.11487233 -0.18823689 0.66312516 8554377
0.12465792 -0.18700284 0.66592312 8159621
0.13511041 -0.18775328 0.66500008 8356998
0.14484695 -0.18769053 0.66477782 8422020
0.15569898 -0.1866992 0.66605872 8291205
0.16538303 -0.1865339 0.66650015 8291205
0.17519131 -0.18653391 0.66649985 8356485
0.18497832 -0.18697836 0.66614282 8290949
0.1947815 -0.1869784 0.66614288 8356485
0.20483412 -0.18712527 0.66630805 8356228
0.21492697 -0.18717881 0.66685736 8356485
0.22505456 -0.18711706 0.66698521 8356485
0.23496568 -0.18740965 0.66667265 8356485
0.24495639 -0.18772872 0.66622245 8290692
0.25555578 -0.18768004 0.66635299 8290692
0.26446167 -0.18781164 0.66600001 8290692
0.27547556 -0.18889438 0.66361761 8421764
0.28516984 -0.18902728 0.66374999 8553094
0.29471812 -0.18899457 0.66397059 8553094
0.30473876 -0.18884204 0.66500008 8553094
0.31386206 -0.18877099 0.66474992 8486790
-0.34172654 -0.17931771 0.66400003 9934489
-0.33573452 -0.17937252 0.66535711 9868696
-0.32903951 -0.17985113 0.66800004 9474196
-0.32229608 -0.18119568 0.6727646 9343123
-0.31488228 -0.18180591 0.67493755 9342607
-0.30501091 -0.18200015 0.67600006 8751756
-0.29506272 -0.18200015 0.67600006 8620427
-0.28511462 -0.18200018 0.67600006 8488584
-0.27507222 -0.1820605 0.67595667 8619913
-0.26523519 -0.18246296 0.67566669 8685450
-0.25575659 -0.18292406 0.67449993 8619657
-0.24484402 -0.18282092 0.67556512 8553863
-0.23409337 -0.18188496 0.67558348 8684933
-0.22641528 -0.18182638 0.67524332 8750729
-0.21358328 -0.18204059 0.67085189 7697014
-0.20580336 -0.18206568 0.67109668 7762290
-0.12278584 -0.18257342 0.67199999 9277587
-0.11532912 -0.18176974 0.6720345 8683647
-0.10499568 -0.1826286 0.67252612 7436155
-0.095044762 -0.18311605 0.67400008 8292235
-0.085032873 -0.18356034 0.67531604 8160907
-0.074930295 -0.18377993 0.67644453 8160907
-0.065743014 -0.18417257 0.67553842 8226442
-0.054822501 -0.1847769 0.67399985 8160905
-0.0449038 -0.18477695 0.67399985 8226185
-0.034360643 -0.18317562 0.67461526 8160905
-0.025071381 -0.18312937 0.67228097 8160905
-0.015117372 -0.18330596 0.67268234 8226441
-0.0056318338 -0.1833767 0.67378962 8291721
0.0043120487 -0.18165302 0.67311108 8291976
0.015585248 -0.18195423 0.67241675 8685963
0.024039406 -0.18222688 0.67109388 9145999
0.03514732 -0.18136398 0.67158341 9933971
0.045347366 -0.18298851 0.67331916 10262418
0.054824896 -0.18418878 0.67388916 10657176
0.064846523 -0.18449123 0.67500037 10723226
0.074779935 -0.18449123 0.67500049 10525591
0.084713347 -0.18449126 0.67500043 10197142
0.095152922 -0.18396704 0.67370898 9474449
0.10497283 -0.18399873 0.67276788 8949134
0.1151908 -0.18435866 0.6724996 8620427
0.12543784 -0.18412316 0.67352915 8291463
0.13504036 -0.18454289 0.67317438 8291462
0.14490804 -0.18499108 0.67305446 8225414
0.15400298 -0.18447338 0.67391664 8225157
0.16449091 -0.18367347 0.67399985 8356742
0.17458373 -0.18385513 0.67466658 8290950
0.18460178 -0.18394601 0.67500001 8290950
0.19488303 -0.18375522 0.67429996 8291206
0.20526774 -0.18367346 0.67399985 8356485
0.21518646 -0.18367349 0.67399985 8356485
0.22514302 -0.18370371 0.67411107 8356485
0.23570365 -0.18416701 0.67499995 8356485
0.24530599 -0.18449861 0.67499983 8356228
0.25457802 -0.1848518 0.67428541 8422021
0.26590812 -0.18545841 0.67378366 8356229
0.27518275 -0.18601097 0.67249978 8356229
0.28515068 -0.18605672 0.67266667 8487301
0.29529336 -0.18621013 0.67322206 8618630
0.30532596 -0.18628769 0.67350006 8618630
0.31505412 -0.1861791 0.67311102 8618376
0.32135737 -0.18587475 0.67436367 8420741
-0.33216298 -0.17846173 0.671 9408403
-0.32574624 -0.17880152 0.67346418 9474453
-0.31573558 -0.17933184 0.67775005 9146001
-0.30503613 -0.1794778 0.67899996 8751756
-0.29504383 -0.1794778 0.67899996 8620170
-0.28505155 -0.1794778 0.67899996 8619657
-0.27505928 -0.1794778 0.67899996 8685450
-0.26506701 -0.1794778 0.67899996 8619657
-0.25896063 -0.17947778 0.67900002 8619657
-0.24279109 -0.17942491 0.67879999 8553862
-0.23529825 -0.17921346 0.67800003 8619142
-0.22507878 -0.17906442 0.67660004 8750474
-0.21464595 -0.17805143 0.67625505 7631992
-0.20677334 -0.17793053 0.67519361 8027262
-0.12305136 -0.17801212 0.67582601 9277587
-0.11452661 -0.17787091 0.67397499 8487041
-0.10687455 -0.17879847 0.67560005 6119007
-0.032469004 -0.17892197 0.67899996 8160907
-0.029693373 -0.17892197 0.67900002 8160907
0.0060191369 -0.17885138 0.67553341 8357513
0.013970563 -0.17872281 0.67489994 8685963
0.020238163 -0.17865846 0.67800003 8948620
0.035174925 -0.17767084 0.67445469 10131091
0.041609976 -0.17765436 0.67700005 10328468
0.098950036 -0.17921346 0.67800003 9737107
0.10116728 -0.17921346 0.67800003 9539729
-0.25495061 -0.18097313 0.68218189 8554377
-0.24800074 -0.18174604 0.67999995 8422791
-0.2218636 -0.18000644 0.68100005 8750219
-0.10104633 -0.18056391 0.68100005 8160136
-0.094988942 -0.18069647 0.68150002 8226700
-0.084644407 -0.18121204 0.68344438 8160907
-0.074720301 -0.18153608 0.68466681 8160907
-0.063957751 -0.18228698 0.68272722 8226444
-0.054785695 -0.18233852 0.68266022 8160907
-0.044993106 -0.18241203 0.68377793 8160906
-0.03813028 -0.18209502 0.68300003 8160906
-0.02414432 -0.18083514 0.68153858 8095112
-0.015327509 -0.18082908 0.6820001 8291721
-0.0052906293 -0.1807701 0.68177789 8225928
0.00084105536 -0.1805639 0.68100005 8291721
0.047539122 -0.18141204 0.67999995 10723224
0.055038538 -0.18117927 0.68333334 10789017
0.065134518 -0.18170755 0.68514287 10920347
0.075076103 -0.1816877 0.68525004 10657177
0.084897839 -0.18182667 0.68449998 10591384
0.094981998 -0.18152998 0.68445164 10131605
0.10585829 -0.18091743 0.68299997 9277584
0.11477214 -0.18100968 0.6820001 8686219
0.12480855 -0.18100965 0.68199998 8423047
0.13519271 -0.18091297 0.6822058 8291205
0.14521171 -0.18129255 0.68204641 8291206
0.15472829 -0.18144011 0.6818049 8225414
0.16505454 -0.18152234 0.68162179 8291206
0.17501873 -0.18148783 0.68240011 8291205
0.18506107 -0.18148787 0.68240029 8356743
0.19510338 -0.18148784 0.68240035 8356743
0.20491786 -0.18152142 0.68223286 8356487
0.21473935 -0.1814879 0.68240029 8422022
0.22478163 -0.18148783 0.68240029 8356485
0.23487036 -0.18152347 0.68253356 8422278
0.24486628 -0.18148787 0.68240035 8356485
0.25495842 -0.18152353 0.68253356 8422278
0.26539508 -0.18197992 0.68276459 8356229
0.27525058 -0.18211806 0.68266666 8487556
0.28521183 -0.18213685 0.68269807 8553092
0.29521495 -0.18255846 0.68427664 8618628
0.30479139 -0.18265046 0.68466651 8618885
0.31501898 -0.18273862 0.68499976 8618887
0.32438979 -0.18248661 0.68585688 8552582
0.33159065 -0.18185671 0.68800002 7696248
-0.33177397 -0.17564127 0.68399996 9605782
-0.32539195 -0.17618513 0.68435466 9343380
-0.31620744 -0.17712332 0.68553817 8948879
-0.30549145 -0.17882077 0.68500012 8751756
-0.29541087 -0.17882077 0.68500012 8619658
-0.28533033 -0.17882079 0.68500012 8685450
-0.27524975 -0.1788208 0.68500012 8685194
-0.26516917 -0.1788208 0.68500012 8553864
-0.25494403 -0.17888393 0.68426931 8488328
-0.24475329 -0.17809419 0.68524998 8488071
-0.23507373 -0.17709465 0.68447053 8619657
-0.22543083 -0.17560557 0.68508321 8553865
-0.21490097 -0.17510416 0.68362504 8553863
-0.20905809 -0.17443182 0.68100005 8619655
-0.12164404 -0.17470683 0.68099993 9343380
-0.11595119 -0.17512086 0.68307126 9079949
-0.10474963 -0.17743811 0.68291497 7501434
-0.095124155 -0.17770998 0.68478715 8292237
-0.085041068 -0.17812063 0.68664426 8160907
-0.076841339 -0.17870726 0.68642867 8226699
-0.064677745 -0.17994227 0.685 8160907
-0.057397325 -0.17994228 0.68500006 8160907
-0.032744046 -0.178718 0.68719995 8095114
-0.025188167 -0.17874004 0.68594283 8160905
-0.015428641 -0.17864679 0.68649995 8160135
-0.0053291465 -0.17871861 0.68677759 8225928
0.0046745152 -0.17744333 0.68290317 8291977
0.013646573 -0.17666166 0.68099999 8620427
0.046524234 -0.17788789 0.68275869 10591383
0.055361915 -0.17830461 0.68733329 10789017
0.065067381 -0.17873697 0.68900007 10986396
0.074249215 -0.17913178 0.68900007 10722968
0.081403144 -0.17930098 0.68900007 10591384
0.096048996 -0.17930098 0.68900007 10197142
0.1049902 -0.17883116 0.68663162 9605778
0.1147359 -0.17892762 0.68400007 8752011
0.12480176 -0.17892762 0.68400002 8423047
0.1344943 -0.1786425 0.68539989 8291205
0.14498554 -0.17852031 0.68599993 8291205
0.15554178 -0.17874245 0.68490905 8291207
0.16477162 -0.17886242 0.68431997 8225414
0.17527144 -0.17852032 0.68599993 8291462
0.18536672 -0.17852031 0.68599993 8291462
0.19462074 -0.1788011 0.68599993 8423048
0.20499644 -0.17908186 0.68599999 8422535
0.21453089 -0.17908186 0.68599999 8422278
0.22462617 -0.17908186 0.68599999 8422278
0.23472145 -0.17908186 0.68599999 8422278
0.24481675 -0.17908186 0.68599999 8487558
0.25491205 -0.17908186 0.68599999 8422278
0.26500738 -0.17908186 0.68599999 8356483
0.27510262 -0.17908186 0.68599999 8553349
0.28519791 -0.17908186 0.68599999 8553349
0.29510903 -0.17931026 0.68687499 8618885
0.30485985 -0.17942992 0.68733341 8684678
0.31415361 -0.17960395 0.68800008 8684680
-0.073663749 -0.18025659 0.69050008 8226700
-0.065244257 -0.18038712 0.69100004 8160907
-0.055153638 -0.18064816 0.69199997 8160907
-0.044596169 -0.18064052 0.69387507 8095114
-0.037158016 -0.18060215 0.69400007 8160907
0.086598374 -0.18069088 0.69000006 10591640
0.091111332 -0.1806909 0.69000006 10394518
0.32493529 -0.18090922 0.69299996 8684679
0.33230072 -0.18090922 0.69300002 8552324
-0.33318868 -0.17233278 0.69361538 9474710
-0.32512262 -0.17241773 0.69537801 9080465
-0.31492707 -0.17370437 0.69463623 8752013
-0.30530223 -0.17513983 0.69219965 8685963
-0.29525951 -0.17511289 0.69253808 8554377
-0.28503841 -0.17519324 0.69285703 8554121
-0.27493644 -0.17525163 0.69287097 8619657
-0.2650511 -0.17592327 0.69350004 8488071
-0.25507376 -0.17607941 0.69411123 8488071
-0.24489319 -0.17383112 0.69422239 8553864
-0.23565099 -0.17295432 0.69363445 8685450
-0.2233707 -0.17196435 0.6924001 8553864
-0.2177033 -0.1727096 0.69139147 8553863
-0.11372189 -0.17348057 0.69378579 9277584
-0.10467199 -0.17377727 0.69400001 8028549
-0.095715471 -0.17484163 0.6948334 8292492
-0.084912568 -0.17568588 0.69477767 8226700
-0.074321024 -0.17671098 0.6934666 8160907
-0.064957671 -0.17718618 0.69399989 8226186
-0.055115119 -0.17751168 0.69488251 8160907
-0.04728118 -0.1781393 0.69526321 8029321
-0.037158016 -0.17889784 0.69400001 8160905
-0.023832211 -0.17639366 0.69452006 7963526
-0.015048045 -0.17684816 0.69487494 8095112
-0.005392889 -0.17696476 0.69533318 8226184
0.04795048 -0.17491373 0.69400001 10525590
0.054332752 -0.17534949 0.69487506 10789017
0.065065816 -0.17687991 0.69499993 10920603
0.075527512 -0.17734849 0.69499987 10722712
0.085278466 -0.17782758 0.69473666 10525592
0.094557293 -0.17777216 0.69568396 10196886
0.10570586 -0.17645811 0.69565302 9539986
0.11480065 -0.17591359 0.69525456 8817806
0.12464763 -0.17588663 0.69538736 8488841
0.13489829 -0.1762338 0.69472212 8291462
0.14507654 -0.17617799 0.69449997 8356999
0.15529698 -0.17617795 0.69450033 8291463
0.16494949 -0.17617802 0.69450003 8291463
0.17460211 -0.17617801 0.69449985 8226182
0.18482246 -0.17617804 0.69449973 8291719
0.19505967 -0.17654768 0.69445461 8357255
0.20487601 -0.1767624 0.69457173 8488585
0.21479988 -0.1767084 0.69481373 8488071
0.22477829 -0.17724375 0.69600022 8422278
0.23470598 -0.17723523 0.69642889 8356485
0.24472401 -0.17706916 0.69577807 8487814
0.25464058 -0.17725837 0.69510537 8487814
0.26488009 -0.1773151 0.69449991 8422020
0.27510038 -0.17731512 0.69449997 8553349
0.28513187 -0.17742243 0.69452959 8619142
0.29501709 -0.17746198 0.69547075 8618885
0.30506459 -0.1775704 0.69550025 8618885
0.31529975 -0.1775704 0.69550031 8684679
0.32496616 -0.17757036 0.6955002 8684679
0.33315384 -0.17745532 0.69616657 8881287
-0.33380157 -0.16907719 0.69379997 10525597
-0.32503378 -0.16967112 0.69811112 9146001
-0.31859282 -0.16988719 0.69900006 8752013
-0.23290755 -0.16980816 0.69400001 8619657
-0.22421055 -0.16966835 0.69342858 8685450
-0.21815541 -0.16980816 0.69400001 8619657
-0.031937782 -0.18032305 0.70400006 8095112
-0.34005991 -0.17091544 0.708 11051937
-0.33531973 -0.17104641 0.7033636 10131610
-0.31400672 -0.17114519 0.70230007 8751756
-0.30467722 -0.17130919 0.70250028 8620170
-0.29491347 -0.17130919 0.70250005 8685450
-0.28514966 -0.17130916 0.70250022 8619657
-0.2745463 -0.17150208 0.70238471 8619657
-0.26507688 -0.17220235 0.70379966 8488070
-0.25500911 -0.17200539 0.70299995 8619656
-0.24899964 -0.17150547 0.70000005 8685448
-0.114584 -0.17132644 0.70255554 9869463
-0.10499609 -0.17161775 0.70375019 8620943
-0.094481088 -0.17233177 0.7033999 8226700
-0.085059829 -0.17252025 0.70317668 8226700
-0.075042754 -0.17268836 0.70344472 8226699
-0.065145098 -0.17318684 0.70505869 8160906
-0.055951636 -0.1738133 0.70530754 8160907
-0.044536959 -0.17635918 0.70301837 8095114
-0.035649139 -0.17726953 0.70269078 8095113
-0.024406338 -0.17381267 0.70509994 8029320
-0.01466798 -0.17338303 0.7039367 8160648
-0.0054420233 -0.17393056 0.70436144 8291722
0.0024756035 -0.17742045 0.70350003 8291721
0.055812825 -0.17269893 0.70299995 10920346
0.065093614 -0.17404881 0.70470601 11117468
0.074913211 -0.17423777 0.70464706 10854554
0.085021667 -0.17422254 0.70499992 10788762
0.095153563 -0.17423739 0.7054705 10131607
0.10441086 -0.17398183 0.70518166 9605780
0.11489109 -0.17234676 0.70437521 8817806
0.12471875 -0.17192097 0.70458829 8488841
0.13476974 -0.17228387 0.70413303 8357255
0.1451049 -0.17225173 0.70399964 8488586
0.15487178 -0.17238089 0.70441002 8357000
0.16467685 -0.17249478 0.7049998 8291463
0.17505172 -0.17249475 0.70499986 8291464
0.18520676 -0.17254122 0.70486015 8291719
0.19501039 -0.17247021 0.70523781 8357255
0.2046009 -0.17302576 0.70514309 8620170
0.21497984 -0.1734076 0.70400023 8423048
0.22501409 -0.17359912 0.70477784 8488071
0.23488228 -0.17365386 0.70499998 8422278
0.2446024 -0.17359912 0.70477784 8488071
0.25564146 -0.17325065 0.70482051 8488071
0.26453301 -0.17292285 0.70403826 8487814
0.2746425 -0.17282468 0.70399994 8422278
0.28472903 -0.17314292 0.70519549 8553350
0.29449743 -0.17433588 0.70450026 8684679
0.30534369 -0.17456014 0.70400023 8618887
0.3151283 -0.17456017 0.70400023 8618885
0.32491297 -0.17456013 0.70400023 8684679
0.33527306 -0.17456014 0.70400023 8684423
0.3422915 -0.17231762 0.70900005 8881288
-0.34005991 -0.16917674 0.708 11314337
-0.33502391 -0.16892356 0.7063846 10525595
-0.3257224 -0.16752744 0.70499992 9080208
-0.3156763 -0.16878119 0.70599997 8817036
-0.30489853 -0.16893779 0.7069999 8751243
-0.29507223 -0.16893779 0.7069999 8751243
-0.28524587 -0.1689378 0.7069999 8685450
-0.27484158 -0.1689378 0.7069999 8619656
-0.26493341 -0.16925639 0.70833331 8619655
-0.25533122 -0.1694157 0.70899993 8685448
-0.11458401 -0.169026 0.70255554 9804183
-0.10499609 -0.16931337 0.70375007 8621199
-0.098843597 -0.169037 0.7050001 8358285
0.12550114 -0.1694157 0.70899999 8488841
0.1347106 -0.16933604 0.70866662 8423048
0.14500454 -0.16917677 0.70800012 8488586
0.15484475 -0.16917677 0.70800012 8422794
0.16468495 -0.16917676 0.70800012 8422793
0.17510399 -0.16917676 0.70800012 8291463
0.18424959 -0.16952448 0.70800006 8357255
0.19484682 -0.16980958 0.70822227 8357255
0.20259506 -0.16999608 0.70900005 8553864
0.25824177 -0.16999608 0.70900005 8684678
0.26496229 -0.16984622 0.70837504 8618887
0.27466378 -0.16975631 0.70800006 8553607
0.28460565 -0.16981626 0.70825005 8488071
0.29012272 -0.16999608 0.70900005 8488071
-0.030224862 -0.18273354 0.71800011 8029319
-0.029050836 -0.18273354 0.71800011 8029319
0.0090288278 -0.18004081 0.71200001 8423561
0.010775146 -0.18004081 0.71200001 8620940
-0.25560144 -0.17023568 0.71900004 8685448
-0.12397379 -0.17132728 0.71700001 11052445
-0.0939271 -0.17057838 0.71142858 8226700
-0.084690258 -0.17071536 0.71199995 8226700
-0.074806876 -0.17074534 0.71212494 8160907
-0.064146578 -0.17074305 0.71361548 8226700
-0.053960003 -0.17167142 0.71290922 8160907
-0.044973951 -0.17228879 0.71337205 8095114
-0.03523184 -0.17377788 0.71434557 8095114
-0.025094679 -0.17207164 0.71400017 8094856
-0.014040208 -0.17074308 0.71385723 8291721
-0.003907748 -0.17158014 0.71367997 8357514
0.0045521888 -0.17477417 0.71485704 8423306
0.010775146 -0.17770946 0.71200007 8620940
0.055872258 -0.17155455 0.71550006 11052189
0.065184519 -0.17143464 0.71500009 11117982
0.075122021 -0.17143469 0.71500009 11052189
0.085059524 -0.17143466 0.71500009 10920604
0.094993748 -0.1714347 0.71499991 10066071
0.10499556 -0.17121142 0.71368003 9409171
0.11531729 -0.1709507 0.71055561 8817805
0.12103437 -0.17081705 0.71000004 8620427
0.18709528 -0.17002597 0.71400005 8357255
0.19468392 -0.17002596 0.71400011 8423048
0.20639722 -0.17091218 0.71214294 8685706
0.2150763 -0.17118664 0.71134263 8357255
0.22500794 -0.17130968 0.71206254 8553864
0.23501958 -0.17139499 0.71241671 8422535
0.24529621 -0.17135893 0.71205729 8488071
0.25400308 -0.17103983 0.7123999 8553606
0.26539791 -0.17007887 0.71422231 8684679
0.27524024 -0.17002596 0.71400011 8619144
0.28458008 -0.17002596 0.71400011 8553351
0.29548165 -0.17164233 0.71102488 8487813
0.30496708 -0.17165521 0.71131665 8553350
0.31522131 -0.17198557 0.71223217 8684421
0.32494098 -0.17197171 0.71239978 8816007
0.33484232 -0.17197168 0.7123996 8816264
0.34398031 -0.17148989 0.71436357 8618631
-0.342253 -0.16733761 0.71500009 11709091
-0.33573669 -0.16700329 0.71357155 10197143
-0.32231352 -0.16591729 0.71300006 8882829
-0.31506404 -0.16585942 0.71623838 8685707
-0.30495307 -0.16598289 0.71625447 8554121
-0.29509032 -0.16626514 0.71623081 8685450
-0.28508177 -0.16645445 0.71582359 8751242
-0.27536356 -0.16653939 0.71568757 8685449
-0.26508796 -0.16792291 0.71500009 8750727
-0.25599334 -0.16827378 0.71899998 8554376
-0.12219641 -0.16773194 0.71620011 10592413
-0.11530033 -0.16712332 0.7141251 9343893
-0.1053071 -0.16701743 0.71366644 8620943
-0.094899192 -0.16718714 0.71438879 8358285
-0.084749877 -0.16739219 0.71482384 8226699
-0.074823208 -0.16728218 0.71523517 8160907
-0.065298237 -0.16765767 0.71697879 8226443
-0.054646771 -0.16909349 0.71500009 8160907
-0.044811811 -0.16947782 0.71662503 8160907
-0.039030034 -0.16980299 0.71800005 8095114
-0.021884099 -0.16885702 0.71400005 8291721
-0.015763028 -0.16908887 0.71346176 8291721
-0.0049665212 -0.16927087 0.71575004 8423307
0.054077901 -0.1690935 0.71500003 11183773
0.10935078 -0.16899638 0.71560001 9080721
0.11523622 -0.16861548 0.71547198 8817806
0.12469924 -0.16802534 0.71504003 8554634
0.13464051 -0.16779245 0.71444464 8423049
0.1450659 -0.16768809 0.71400005 8357001
0.15498953 -0.16768809 0.71399999 8422794
0.16491309 -0.16768809 0.71400005 8422794
0.17483671 -0.16768807 0.71399999 8357256
0.18476032 -0.16768809 0.71400005 8357255
0.19468391 -0.16768807 0.71399999 8423048
0.20489408 -0.16792294 0.71500009 8685449
0.21483898 -0.16859904 0.71582347 8423048
0.22461717 -0.16883226 0.71637499 8422792
0.23466611 -0.16890103 0.71666658 8422791
0.24440087 -0.16874389 0.7159999 8488069
0.25493503 -0.16874392 0.71599996 8553605
0.26539791 -0.16832493 0.71422219 8684680
0.27524021 -0.16827254 0.71400005 8553607
0.28458011 -0.16827254 0.71400005 8553351
0.29438376 -0.16853769 0.71512508 8488070
0.30469459 -0.16874392 0.71599984 8422532
0.31523141 -0.16874392 0.71599984 8684678
0.3251828 -0.16874391 0.7159999 8816007
0.33485872 -0.16877839 0.7159999 8882057
0.34508562 -0.16933 0.71600002 8684168
0.013361224 -0.18001515 0.72600001 8555147
-0.26119345 -0.17074898 0.72200006 8751241
-0.13081671 -0.17061415 0.72900003 11643811
-0.12902869 -0.17061415 0.72900003 11446945
-0.032804247 -0.17098172 0.72168434 8160392
-0.026752222 -0.17146486 0.72368181 8160136
0.007299264 -0.17249037 0.72379428 8423307
0.012651429 -0.17490748 0.72603327 8423562
0.055690896 -0.17027408 0.72333336 11183773
0.064688526 -0.17086722 0.72250009 11249568
0.074780345 -0.17098548 0.72300005 11052446
0.08482904 -0.17098548 0.72300005 10789275
0.094685629 -0.17064385 0.72155559 10197656
0.10463371 -0.17051247 0.72100008 9343379
-0.34399378 -0.1649148 0.72233325 11577251
-0.33529985 -0.16420098 0.72606272 9211279
-0.32538715 -0.16353974 0.72449988 8882827
-0.31449425 -0.16199069 0.72512513 8751242
-0.30478963 -0.16205768 0.72500014 8751499
-0.29487908 -0.16255623 0.7250002 8685450
-0.28480268 -0.16255623 0.7250002 8685449
-0.27448946 -0.16323578 0.72428972 8685448
-0.26529518 -0.1655919 0.72383672 8751241
-0.2596727 -0.16694053 0.72600001 8357255
-0.13081671 -0.16822714 0.72900003 11381411
-0.12435699 -0.16687168 0.72736377 10263963
-0.11478244 -0.1644662 0.72557157 8884114
-0.10477326 -0.16291183 0.72562498 8489870
-0.094966434 -0.16270784 0.72617638 8292491
-0.084867254 -0.1628384 0.7258234 8226698
-0.074792407 -0.16394 0.72324991 8160905
-0.064876966 -0.16428627 0.72477794 8226442
-0.054973025 -0.16621256 0.72235012 8226186
-0.04492392 -0.16638565 0.72413367 8226186
-0.036132939 -0.16712698 0.72645015 8291721
-0.024643289 -0.16855602 0.72423536 8357514
-0.015014 -0.16804798 0.72055554 8291720
-0.0047517973 -0.16738382 0.72486681 8423307
0.0038688912 -0.16825068 0.72626323 8423307
0.011032417 -0.1688239 0.72900003 8423307
0.05627498 -0.16832547 0.72294122 11446175
0.064087301 -0.16781327 0.72466666 11577762
0.075531512 -0.16807278 0.72449988 11052192
0.083986104 -0.16845104 0.72371984 10460826
0.094685636 -0.16887185 0.72155553 10131863
0.10634556 -0.16791153 0.72399998 9277843
0.11567006 -0.16571602 0.72546154 8686733
0.12529089 -0.16434215 0.72506368 8554635
0.13517073 -0.16410139 0.72400028 8488586
0.14497074 -0.16434383 0.72310734 8357001
0.15516742 -0.16446777 0.72299999 8357001
0.16493121 -0.16453205 0.7228235 8422794
0.17495859 -0.16440342 0.72317654 8357256
0.18502368 -0.16453207 0.72282362 8357255
0.19481957 -0.16450992 0.72318727 8423048
0.20478719 -0.16461739 0.72411764 8423048
0.21524371 -0.16526139 0.72415799 8423048
0.22500323 -0.16543388 0.72464305 8423048
0.23527151 -0.16557348 0.725254 8423048
0.24517423 -0.16556607 0.72522241 8488071
0.25496385 -0.1655684 0.72575021 8553607
0.26513067 -0.16541474 0.72409123 8618887
0.27507249 -0.16558075 0.72306114 8553607
0.28520682 -0.16565149 0.72300011 8488070
0.29546097 -0.16576703 0.72350019 8488069
0.304995 -0.1661263 0.72507149 8488069
0.31488076 -0.16633882 0.72599989 8488069
0.32497111 -0.16633882 0.72599983 8684678
0.33476943 -0.16640326 0.7258234 8816264
0.34526244 -0.1667058 0.72552449 8816265
0.35257563 -0.1661305 0.72656524 8749960
-0.25583422 -0.17071708 0.73200005 8488841
0.016823012 -0.17323115 0.73200005 8620427
0.021969453 -0.17225243 0.73600006 8817805
-0.35541132 -0.1645202 0.73757893 11840420
-0.34531456 -0.16258706 0.73281401 10328729
-0.33474508 -0.16077717 0.73312491 8817291
-0.32582748 -0.16091295 0.73283333 8751241
-0.31508151 -0.1611297 0.73199999 8817034
-0.30490774 -0.1611297 0.73199999 8685449
-0.29473394 -0.1611297 0.73199999 8685450
-0.28511065 -0.16110218 0.731875 8685450
-0.27404031 -0.16147663 0.73140007 8488841
-0.26386735 -0.16282597 0.73458838 8488841
-0.25671089 -0.16706337 0.73478568 8488840
-0.13250469 -0.16547014 0.73640025 10592926
-0.12510891 -0.16300118 0.73363262 9409685
-0.11510599 -0.16177164 0.73245454 8883857
-0.10613632 -0.16096054 0.7337274 8424077
-0.095237873 -0.1605867 0.73500007 8226698
-0.085034527 -0.16061097 0.73511118 8226699
-0.074898042 -0.16163786 0.73137116 8095112
-0.064958826 -0.16180806 0.73237532 8226441
-0.055234749 -0.16181108 0.73263645 8291721
-0.044887029 -0.16186194 0.7331354 8291721
-0.034423981 -0.16287531 0.73430735 8291721
-0.024905233 -0.16526674 0.73442852 8291721
-0.014455208 -0.16598645 0.73633993 8291721
-0.0054601505 -0.16389146 0.73471421 8291721
0.0053575207 -0.16523513 0.7348333 8357513
0.014993012 -0.16805725 0.73611438 8489098
0.022059001 -0.16871995 0.73899996 8883342
0.049446557 -0.16795014 0.73300004 11314333
0.055428714 -0.16645916 0.7343902 11643554
0.065303616 -0.16536991 0.73407686 11643812
0.074160688 -0.16630416 0.73437518 11249570
0.085452601 -0.16623481 0.73500013 10066329
0.094657719 -0.16736461 0.73044419 9737366
0.10553729 -0.16617802 0.73428559 9277843
0.11421914 -0.16253453 0.73372096 8752271
0.12512241 -0.16096909 0.73399997 8423307
0.13514289 -0.16074976 0.73299992 8357257
0.14515933 -0.16117838 0.73299992 8357001
0.15491894 -0.16134979 0.73299986 8422794
0.16510664 -0.16134982 0.73299986 8422794
0.17469501 -0.16134982 0.73299986 8422793
0.1848827 -0.1613498 0.73299986 8423048
0.19507039 -0.16134982 0.73299986 8423048
0.20465879 -0.1613498 0.73299986 8488584
0.21494578 -0.16142319 0.73333329 8619913
0.2253411 -0.16156991 0.73400003 8488071
0.23502223 -0.16162497 0.73425007 8554121
0.24514425 -0.16156991 0.73399997 8422791
0.25534573 -0.16156991 0.73400003 8553864
0.26564568 -0.16138792 0.73393083 8618887
0.27518222 -0.16156401 0.73400009 8684680
0.28521636 -0.16179061 0.73366696 8684678
0.29578909 -0.16169877 0.7338286 8619142
0.30476391 -0.16241746 0.73479998 8619398
0.31485185 -0.163132 0.73562503 8488069
0.32463852 -0.16321515 0.73600006 8553349
0.33486784 -0.16321515 0.73600006 8750471
0.34480265 -0.16307656 0.73537499 8881800
0.35424292 -0.1629934 0.73499995 8881800
-0.35170346 -0.15960023 0.73600006 10854299
-0.34580523 -0.15965445 0.73625004 9934487
-0.33499768 -0.15822954 0.73695672 8817036
-0.32491156 -0.1582949 0.73680568 8817034
-0.31507662 -0.15838952 0.7363956 8751241
-0.30484766 -0.15847433 0.73600024 8817034
-0.29497498 -0.15843144 0.73620021 8751243
-0.28495616 -0.15837939 0.73634905 8685706
-0.27569336 -0.15873496 0.73388898 8488841
-0.2662341 -0.15922852 0.73428577 8423048
-0.12384574 -0.15847085 0.73860008 9014928
-0.11466291 -0.15844908 0.7362501 9014927
-0.10487098 -0.15820691 0.73512489 8489611
-0.095237881 -0.15818001 0.73499995 8358027
-0.085453957 -0.15862279 0.73509991 8292491
-0.074908711 -0.15899776 0.73600006 8095112
-0.065357961 -0.15918675 0.73687518 8095112
-0.055126492 -0.15921374 0.73700023 8226184
-0.045407694 -0.15915833 0.73714298 8225928
-0.035306714 -0.15890639 0.73837495 8225928
0.11588185 -0.1596622 0.73628575 8620685
0.1251224 -0.15916653 0.73400009 8423307
0.13514288 -0.15894969 0.73300004 8357514
0.14473128 -0.15894969 0.73300004 8357001
0.15491897 -0.15894969 0.73300004 8422794
0.16510664 -0.15894969 0.73300004 8422794
0.26916879 -0.15843594 0.73900002 8684680
0.27547893 -0.15884376 0.73709106 8618887
0.28529128 -0.15888672 0.73644459 8619142
0.295077 -0.15871027 0.73695248 8684680
0.30239871 -0.15843596 0.73900002 8684937
-0.2464668 -0.17100303 0.74900001 8685448
-0.2327334 -0.17036378 0.74620003 8751241
-0.22705758 -0.17068341 0.74760008 8817034
-0.1400506 -0.17015977 0.74000001 12301482
-0.13823561 -0.17015977 0.74000001 12170153
0.02578835 -0.17122708 0.74200004 9079949
-0.36062419 -0.16076258 0.74700004 11577761
-0.35772261 -0.16198076 0.74250007 11511969
-0.34457746 -0.16011693 0.74400002 9145743
-0.26160812 -0.1612736 0.74311113 8488839
-0.25675756 -0.16273847 0.74393326 8488839
-0.24646677 -0.16855054 0.74900001 8620168
-0.23304529 -0.16630808 0.74720007 8685961
-0.22770423 -0.16727443 0.74799997 8685962
-0.14282013 -0.16448303 0.7456001 11710119
-0.13669722 -0.16341901 0.74199998 10461341
-0.12950973 -0.16090131 0.74200004 9146771
-0.025134502 -0.16131526 0.7411111 8357514
-0.015253904 -0.16222616 0.74444824 8291976
-0.0056137037 -0.16175637 0.74514294 8357514
0.0048132013 -0.16155487 0.742706 8357514
0.015518675 -0.16337976 0.74345434 8489097
0.024998631 -0.16527116 0.74617857 8948877
0.033335339 -0.16771317 0.74800009 9474192
0.054834876 -0.16354434 0.74400014 10723482
0.065395296 -0.16255307 0.74400014 11249569
0.073518552 -0.1641596 0.74211109 11184034
0.086251192 -0.16471039 0.74550009 9935257
0.095576838 -0.16490164 0.74263632 9409172
0.10422468 -0.16308251 0.74360448 9014928
0.11177371 -0.16033216 0.74500006 8817806
0.17575833 -0.16046761 0.74000007 8488586
0.18483332 -0.16046761 0.74000001 8423048
0.19511826 -0.16046761 0.74000001 8423048
0.20540324 -0.16046761 0.74000001 8488841
0.2150832 -0.16046761 0.74000001 8554121
0.22476317 -0.16046761 0.74000001 8553864
0.2351189 -0.1605158 0.74022222 8554120
0.24533311 -0.16046761 0.74000001 8423048
0.25501305 -0.16046761 0.74000001 8488328
0.264088 -0.16046761 0.74000007 8619144
0.30714726 -0.16112779 0.74024999 8684937
0.31515479 -0.16150871 0.74199998 8488070
0.32529625 -0.16172639 0.74300003 8553862
0.33501551 -0.16172639 0.74300003 8619655
0.34518561 -0.16165383 0.74266666 8816264
0.35494912 -0.16139987 0.74149996 8881801
0.3607696 -0.16129105 0.74100006 8881802
-0.36062419 -0.15831661 0.74700004 11051933
-0.35365051 -0.15719539 0.74602872 10000022
-0.34624001 -0.15683287 0.74578935 9211279
-0.33466303 -0.15539972 0.74476182 8817036
-0.32493785 -0.15556425 0.74600023 8817036
-0.31500861 -0.15566199 0.74600023 8751241
-0.30525014 -0.15566202 0.74600023 8948621
-0.29488179 -0.15566199 0.74600023 8817293
-0.28451344 -0.15566197 0.74600023 8685963
-0.27439207 -0.15672359 0.74438453 8554634
-0.26651317 -0.15779731 0.74423522 8488840
-0.25789285 -0.15922597 0.74840009 8488839
-0.14344905 -0.15980655 0.74825007 10855585
-0.13426331 -0.15789296 0.74628121 9278100
-0.1242826 -0.15517069 0.74397379 8818063
-0.11505289 -0.15484634 0.74452955 8621198
-0.10502515 -0.15478291 0.74474996 8423820
-0.09489464 -0.15456954 0.74423534 8292234
-0.08482103 -0.15512794 0.7438001 8160905
-0.074924842 -0.15547249 0.74455017 8095112
-0.064928524 -0.1556088 0.74578589 8095112
-0.055221487 -0.15574299 0.74642879 8095112
-0.045100443 -0.15565667 0.74660021 8160392
-0.035735436 -0.1564633 0.74579078 8225927
-0.024812791 -0.15848389 0.74466676 8291721
-0.017563194 -0.158732 0.74807686 8291721
-0.0021167733 -0.15968652 0.74200004 8291721
0.0039532403 -0.15977874 0.74242866 8291721
0.10665461 -0.15904966 0.74757141 8818063
0.11587967 -0.15829149 0.74368006 8620940
0.12502781 -0.15709803 0.74416691 8357512
0.13525231 -0.15695758 0.74349999 8423050
0.14497806 -0.15695758 0.74349999 8357513
0.15470383 -0.15695757 0.74349999 8357256
0.16474012 -0.15702151 0.74329424 8423049
0.17506056 -0.1568936 0.74370605 8488841
0.18509676 -0.15695758 0.74349999 8423048
0.19502795 -0.15702531 0.74336004 8423048
0.20516448 -0.15718119 0.74461704 8423048
0.21513337 -0.15708478 0.74453843 8554121
0.22516493 -0.15706526 0.74399996 8488071
0.23499914 -0.15754336 0.74377275 8488328
0.24506283 -0.15759008 0.74360007 8422791
0.25478992 -0.15759005 0.74360001 8488328
0.26469487 -0.15748668 0.74395126 8619144
0.27528432 -0.15683076 0.74575013 8553864
0.2847541 -0.15667301 0.74500006 8553864
0.29449949 -0.15667301 0.74500006 8553864
0.30535418 -0.15737788 0.74475008 8619401
0.31527886 -0.15804555 0.74574995 8553864
0.32462791 -0.15829581 0.74591178 8553863
0.33527005 -0.15833662 0.74742126 8816264
0.34509468 -0.15850112 0.74760991 8750471
0.3551656 -0.15829529 0.74718171 8816264
0.36225522 -0.15822102 0.7465626 8816008
-0.22256528 -0.1708449 0.75099999 8817034
0.038329866 -0.17000346 0.75000006 9803410
0.042064916 -0.17023014 0.75100011 10065812
-0.25259539 -0.16333427 0.75478035 8619912
-0.24421482 -0.16384673 0.75365299 8685962
-0.23622549 -0.16315553 0.75370973 8620426
-0.22423856 -0.16482691 0.75434333 8686218
-0.21918622 -0.16570412 0.75842857 8751498
-0.15089381 -0.16126841 0.75800002 11578534
-0.14903468 -0.16126841 0.75800002 11446949
-0.012587448 -0.16050068 0.75150001 8291975
-0.0045247311 -0.16087058 0.75546163 8357512
0.0037780837 -0.16067718 0.75390911 8291721
0.015038582 -0.16029897 0.75055557 8357513
0.029132262 -0.16325004 0.75000006 8817547
0.036304958 -0.16377158 0.75155085 9212048
0.044987854 -0.16392329 0.75348371 9606035
0.054071326 -0.16204327 0.75295246 9934998
0.064838856 -0.16114265 0.75162512 10723998
0.076149389 -0.16242617 0.7551291 10329242
0.084325597 -0.16278325 0.75478566 10066586
0.094820552 -0.16247869 0.7517941 9343636
0.10162206 -0.16100866 0.75100005 9080978
-0.36249188 -0.15464941 0.75599992 10131351
-0.35581529 -0.15390992 0.75446886 9605523
-0.34548742 -0.15408164 0.75495654 8882827
-0.33496094 -0.15198368 0.75428134 8817035
-0.32502842 -0.15226772 0.75340033 8751242
-0.31517312 -0.15226772 0.75340033 8816777
-0.30511269 -0.1523255 0.75438666 8817035
-0.29527017 -0.15320997 0.7530002 8882829
-0.28472063 -0.15342422 0.7530002 8751499
-0.27473894 -0.15369587 0.75433326 8554634
-0.26423174 -0.15534388 0.75450015 8423048
-0.25621563 -0.15762621 0.7572 8488840
-0.24071479 -0.15980016 0.75400001 8817034
-0.23473504 -0.15967301 0.75339997 8686218
-0.22770838 -0.15975778 0.75379997 8620427
-0.15089381 -0.15878642 0.75800002 11316390
-0.14446414 -0.1570853 0.75589186 9738392
-0.13524379 -0.15520379 0.75366676 8949649
-0.12406911 -0.15299329 0.75700003 8555406
-0.11473566 -0.15149148 0.75535017 8423820
-0.10475463 -0.15147865 0.75471431 8292491
-0.095511146 -0.15170276 0.7541765 8226698
-0.085136071 -0.15170276 0.75417644 8160905
-0.074990712 -0.15135956 0.75499988 8095112
-0.064529613 -0.15143478 0.75537509 8029320
-0.054655626 -0.15145983 0.75550014 8029320
-0.04480416 -0.15156005 0.75600028 8029319
-0.033855814 -0.15295586 0.75437522 8291462
-0.024980668 -0.15375781 0.75467843 8160648
-0.015539537 -0.15545353 0.75541669 8226184
-0.0063359989 -0.15771113 0.7566551 8423304
0.0053179632 -0.15856896 0.7517693 8291976
0.015038582 -0.15845579 0.75055575 8357768
0.037968136 -0.15877603 0.75500005 8883597
0.045397297 -0.1588549 0.75537509 9146769
0.055354588 -0.15883206 0.7525335 9671829
0.064543806 -0.15870328 0.75153339 10197916
0.071111381 -0.15958823 0.75300002 10066331
0.095785461 -0.1580628 0.75719464 9080978
0.10563143 -0.15601684 0.75580001 8752014
0.11458998 -0.15470302 0.75394356 8686478
0.12463929 -0.15319127 0.75435281 8357514
0.13531597 -0.15362795 0.75399989 8291721
0.14517908 -0.15362798 0.75399989 8357769
0.15504219 -0.15362798 0.75399989 8423561
0.16490526 -0.15362796 0.75399989 8423304
0.17473869 -0.15360251 0.75387496 8488841
0.18500224 -0.15342417 0.7530002 8357512
0.1954679 -0.15342419 0.7530002 8357255
0.20531791 -0.1534242 0.7530002 8423048
0.21557097 -0.15273006 0.75521082 8423048
0.22517058 -0.15262477 0.75517523 8488584
0.23515119 -0.15285195 0.7546367 8422535
0.24495429 -0.15320718 0.75500005 8488071
0.25483048 -0.15320717 0.75500011 8619399
0.26427218 -0.15380615 0.7542634 8684937
0.27549931 -0.15465696 0.7530002 8488071
0.28547204 -0.1537054 0.754417 8553864
0.2952722 -0.1534103 0.75540024 8684937
0.30430716 -0.1538765 0.75525022 8750473
0.31511849 -0.15506777 0.75500005 8553864
0.32539266 -0.15533344 0.75449985 8553863
0.33467519 -0.15557961 0.75525028 8619400
0.34515223 -0.15525034 0.75588912 8750216
0.35524055 -0.1550678 0.75499994 8684680
0.36532506 -0.1550114 0.75389659 8750216
0.37268332 -0.15299334 0.75700003 8618631
-0.33477029 -0.1490549 0.75899994 8817035
-0.32546228 -0.14905491 0.75899994 8751242
-0.31553382 -0.14905491 0.75899994 8751241
-0.30498472 -0.14905493 0.75899994 8817034
-0.29877946 -0.1490549 0.75900006 8817035
-0.11064512 -0.14992464 0.75400001 8292491
-0.10817935 -0.14992464 0.75400001 8292491
-0.094617583 -0.14992464 0.75400007 8292491
-0.085987367 -0.14992464 0.75400007 8160905
0.21626191 -0.14967622 0.75900012 8423048
0.22556987 -0.14967622 0.75900006 8357255
0.23549838 -0.14967622 0.75900006 8423048
0.24542689 -0.14967622 0.75900006 8422791
0.25535539 -0.14967622 0.75900006 8619399
0.26280177 -0.14967622 0.75900006 8553864
0.28638199 -0.14967622 0.75900006 8619655
-0.25103772 -0.16003782 0.76100004 8751241
-0.24509947 -0.16022475 0.76188892 8882314
-0.23496647 -0.16053727 0.76337504 8686218
-0.22408618 -0.16081282 0.76214284 8686218
-0.21820264 -0.1637221 0.76366681 8817290
-0.15539604 -0.16025254 0.76799995 11842476
0.013498731 -0.16014822 0.76749998 8489354
0.026552966 -0.16191953 0.764 8620682
0.031756397 -0.16297922 0.76900005 8752011
0.056228291 -0.16032211 0.76833344 9409171
0.064239614 -0.1604612 0.76900005 9737879
0.074228376 -0.16084848 0.76715386 9737623
0.08508905 -0.16034159 0.76244444 9540500
0.091154054 -0.16003782 0.76100004 9409171
-0.37305659 -0.1551107 0.76700014 10985629
-0.36546421 -0.15231541 0.76304358 9802901
-0.35410771 -0.15157032 0.76294756 8948620
-0.34647232 -0.1517704 0.76184618 8882827
-0.2942023 -0.15173982 0.76000017 8817804
-0.28459111 -0.15159872 0.76033342 8686220
-0.27463317 -0.15114853 0.76245433 8488841
-0.26480368 -0.15161386 0.76412916 8488840
-0.25468203 -0.15414079 0.76477998 8488840
-0.24596776 -0.15607338 0.76501876 8685705
-0.2351872 -0.15710761 0.7653718 8686218
-0.22566327 -0.15741917 0.76385725 8751754
-0.21858363 -0.15900035 0.76500005 8686218
-0.15275967 -0.15550807 0.76666653 9738649
-0.14536309 -0.1531712 0.76382142 9015698
-0.13479955 -0.15268773 0.76162487 8818063
-0.12707195 -0.15279448 0.76633328 8620686
-0.11489753 -0.15021852 0.76175004 8489100
-0.10503268 -0.15036643 0.76250005 8291978
-0.09492211 -0.15014458 0.76137507 8292491
-0.084945835 -0.1501199 0.76125008 8160905
-0.075063005 -0.15026782 0.76200002 8095112
-0.065095253 -0.15026782 0.76200002 8029319
-0.055127505 -0.15026782 0.76200002 8029319
-0.04515975 -0.15026782 0.76200002 8029319
-0.035213459 -0.15036641 0.76250005 8225925
-0.02527651 -0.15058827 0.76362497 8291976
-0.013594615 -0.15230049 0.76179177 8160390
-0.0046761353 -0.15344754 0.76435316 8226182
0.0044489866 -0.15637593 0.76605904 8291975
0.013498731 -0.15826342 0.7675001 8555147
0.056228291 -0.15843524 0.76833338 9212049
0.064239614 -0.15857273 0.76900005 9343378
0.076312028 -0.15740882 0.76728588 9409172
0.085020877 -0.15649234 0.76447058 9146771
0.095423222 -0.15349777 0.76531267 8686733
0.10379659 -0.1526431 0.76410705 8620941
0.11507841 -0.15106758 0.76288903 8489099
0.12562943 -0.15080346 0.76099998 8357514
0.13532789 -0.15131649 0.76099992 8291721
0.14528255 -0.15131648 0.76099992 8291721
0.15541993 -0.15127157 0.76127988 8554892
0.16452478 -0.15120891 0.76192296 8488842
0.17491642 -0.15173981 0.76000017 8620427
0.18485801 -0.15173981 0.76000017 8423561
0.1947996 -0.15173984 0.76000017 8423048
0.20474119 -0.15173981 0.76000017 8423048
0.21095467 -0.15173981 0.76000005 8620427
0.26811883 -0.15236196 0.76000017 8619143
0.27582759 -0.15212099 0.76088905 8553607
0.28374216 -0.15192829 0.76160014 8553864
0.29492703 -0.15161605 0.76342857 8685450
0.30615836 -0.1518032 0.76268756 8750473
0.31491441 -0.15211155 0.76322842 8685193
0.32474598 -0.15207896 0.76436824 8553864
0.33486068 -0.1527629 0.76199991 8553864
0.34508961 -0.15206523 0.76479983 8684680
0.35509405 -0.15206517 0.76480007 8684680
0.36501935 -0.15192835 0.76367438 8684680
0.37338674 -0.15145893 0.7654168 8684681
-0.37090656 -0.1499981 0.76700002 9868693
-0.36494058 -0.14960696 0.76499999 9408657
-0.35325688 -0.14869545 0.76585722 8882828
-0.34411377 -0.14803614 0.76459384 8817035
-0.33472645 -0.14729433 0.76600003 8817035
-0.32470638 -0.14729433 0.76600003 8817035
-0.31496042 -0.14712955 0.76514298 8751243
-0.3050693 -0.14718753 0.76544458 8882829
-0.29466406 -0.14810641 0.76426333 8883085
-0.28528702 -0.14817506 0.76478946 8620427
-0.27567554 -0.14784262 0.76699984 8423305
-0.26804921 -0.14782314 0.76875001 8488841
-0.12258596 -0.14874238 0.76700008 8554893
-0.11509823 -0.1477931 0.76182616 8489100
-0.10408056 -0.14799167 0.76380002 8291978
-0.094716571 -0.1467467 0.76645845 8226698
-0.08577624 -0.14699061 0.76555568 8160905
-0.0737269 -0.14775416 0.76451987 8095112
-0.06469959 -0.1473259 0.76620054 8095112
-0.055058092 -0.14738384 0.76597309 8160905
-0.04540867 -0.1473259 0.76620001 8029319
-0.036420606 -0.14768745 0.76528591 8094855
-0.025276512 -0.14871298 0.76362503 8029318
-0.015321724 -0.14905377 0.76537496 8029575
-0.0061809625 -0.14920825 0.76763636 8226182
0.00032103062 -0.14913023 0.76900005 8226182
0.10548769 -0.14974666 0.76571429 8620940
0.11664376 -0.14858805 0.76493329 8423562
0.12529631 -0.14796536 0.76624984 8357769
0.13531967 -0.14796534 0.76624984 8357513
0.14534301 -0.14796534 0.76624984 8357514
0.15512609 -0.14790808 0.76659983 8423307
0.16589035 -0.14805755 0.76693332 8554380
0.17520197 -0.14846626 0.76560014 8554380
0.1849553 -0.14864752 0.76548666 8620172
0.19520465 -0.14902513 0.76525015 8423049
0.2052149 -0.14902519 0.76525015 8422792
0.21490015 -0.14871751 0.76588464 8423048
0.22514521 -0.14854841 0.76600003 8357255
0.23516528 -0.14854842 0.76600003 8423048
0.24518538 -0.14854842 0.76600003 8357255
0.25520542 -0.14854842 0.76600003 8488327
0.26571411 -0.14877927 0.76535732 8553864
0.27495563 -0.14899011 0.76507705 8553351
0.28483051 -0.14881901 0.76612008 8553606
0.29461488 -0.14872009 0.76600015 8751242
0.30473706 -0.14857614 0.76614273 8750473
0.31415376 -0.14861818 0.76728582 8750730
