# .PCD v0.7 - Point Cloud Data file format
VERSION 0.7
FIELDS x y z rgb
SIZE 4 4 4 4
TYPE F F F U
COUNT 1 1 1 1
WIDTH 1120
HEIGHT 1
VIEWPOINT 0 0 0 1 0 0 0
POINTS 1120
DATA ascii
0.32503241 -0.22263891 0.63414288 9409430
0.33328027 -0.22249129 0.635162 9212308
-0.22411557 -0.210942 0.63143998 10593447
-0.21438867 -0.21095751 0.63157171 10725031
-0.20478635 -0.2111775 0.6316753 10790825
-0.19538793 -0.21144129 0.63127285 10790825
-0.18443352 -0.21144645 0.63120919 10725033
-0.17593363 -0.21115907 0.63239986 10330791
-0.16508454 -0.21065924 0.63399994 10002083
-0.15471783 -0.21065922 0.63399994 9739167
-0.14486945 -0.21065921 0.63399994 9673375
-0.13502105 -0.21065924 0.63399994 9542046
-0.12517267 -0.21065925 0.63399994 9410974
-0.11532428 -0.21065924 0.63399994 9410974
-0.10495756 -0.21065924 0.63399994 9345181
-0.095109165 -0.21065925 0.63399994 9345181
-0.083843589 -0.21162206 0.63181823 9476767
-0.074921422 -0.21179402 0.63142854 9410975
-0.065216154 -0.21219917 0.63220704 9476767
-0.055066716 -0.21222572 0.63249987 9476511
-0.044994969 -0.21227631 0.63289469 9607840
-0.035218854 -0.21259907 0.63336873 9542303
-0.025113977 -0.21256128 0.6335004 9607583
-0.014767443 -0.21276259 0.6341002 9607583
-0.0049225665 -0.21289679 0.63449985 9476253
0.0049374523 -0.21304877 0.63494968 9344925
0.015071316 -0.2131125 0.63489443 9344924
0.02495029 -0.21350487 0.63504523 9147545
0.035056271 -0.21363151 0.63514286 9147288
0.045178793 -0.21382074 0.63542444 9081238
0.055143222 -0.21410292 0.63682085 9081237
0.064987354 -0.21429716 0.63669235 9015444
0.074941017 -0.2145721 0.63663161 9081237
0.085372388 -0.21497759 0.63550013 9081236
0.094878659 -0.21553424 0.63464266 9081236
0.10519192 -0.21685609 0.63368428 9015444
0.1150112 -0.2174473 0.63594234 9277841
0.12197645 -0.21822819 0.63814288 9343894
0.18742394 -0.21970737 0.6376667 10789797
0.19702713 -0.21887226 0.6366843 10395039
0.20495881 -0.21856804 0.63740003 10263453
0.21486004 -0.21856804 0.63740003 10000281
0.22497267 -0.21859956 0.63729793 9934488
0.23486787 -0.21853726 0.63750005 9803159
0.24342555 -0.21893558 0.63633347 9803417
0.25516954 -0.21982822 0.63500011 9474454
0.26503348 -0.21982822 0.63500005 9278101
0.2748974 -0.21982822 0.63500011 9278357
0.2852805 -0.21982822 0.63500011 9212310
0.29099116 -0.2198282 0.63500005 9278357
-0.29091838 -0.2061175 0.63600004 9869470
-0.28471479 -0.20556317 0.63584203 10000543
-0.27516025 -0.20581013 0.63427258 9935263
-0.26519716 -0.2069023 0.63392574 10066847
-0.25495067 -0.20688005 0.63357162 10001055
-0.24512704 -0.20727144 0.63350022 10263969
-0.2350044 -0.20768337 0.63466662 10396068
-0.22500305 -0.20814921 0.63530385 10593446
-0.21521968 -0.20799147 0.63581848 10659239
-0.20482671 -0.20777364 0.6365003 10659239
-0.1947221 -0.20806624 0.63558507 10856361
-0.18496811 -0.20808734 0.63551724 10594216
-0.1749692 -0.20780602 0.63640028 10330790
-0.16519116 -0.20794249 0.63682026 9936290
-0.1549468 -0.20832404 0.63792157 9739167
-0.14494754 -0.20832922 0.63800013 9607582
-0.13529153 -0.20861612 0.63783729 9476254
-0.1251294 -0.20876981 0.63775015 9345181
-0.11522279 -0.20876983 0.63775003 9345181
-0.10479473 -0.20876987 0.63774997 9345181
-0.094888091 -0.20876987 0.63774997 9345181
-0.084981441 -0.20876987 0.63775003 9476767
-0.074943855 -0.20877878 0.6376487 9345439
-0.066286616 -0.20921133 0.63591671 9476767
-0.055284351 -0.2094321 0.63500011 9541790
-0.048016202 -0.20943207 0.63500005 9607583
0.12741487 -0.22155911 0.63999999 9212052
0.13558401 -0.2220208 0.64108336 9408917
0.14453575 -0.22261553 0.6430667 9671830
0.15501007 -0.22160152 0.6443392 10000538
0.16582875 -0.22328873 0.64576 11380900
0.17474081 -0.22343132 0.6442759 11775402
0.18341719 -0.22124295 0.64152008 11118247
0.25508577 -0.22051135 0.63999999 9409174
0.26502737 -0.22051133 0.64000005 9278101
0.27496898 -0.22051135 0.63999999 9212564
0.28491056 -0.22051133 0.64000005 9212565
0.29458621 -0.22070274 0.64055556 9278103
0.30474591 -0.22085586 0.64099997 9278102
0.31581387 -0.22074452 0.64161545 9146516
0.32516664 -0.22067492 0.64200008 9146772
0.33519801 -0.22071308 0.64211118 9343380
0.34250969 -0.22008501 0.648 9343380
-0.064614773 -0.21003333 0.64000005 9476767
-0.055196423 -0.21003333 0.64000005 9476254
-0.04448602 -0.21050848 0.64025003 9542047
-0.034844361 -0.21088624 0.64099991 9541791
-0.024887236 -0.21088624 0.64099991 9476510
-0.014438714 -0.21090929 0.64267999 9410461
-0.0049936832 -0.21088085 0.64366674 9410461
0.0050048614 -0.21088079 0.6436668 9279388
0.015003407 -0.21088085 0.6436668 9213595
0.025023418 -0.21104468 0.64416677 9016473
0.035054874 -0.21120846 0.64466667 9081752
0.044896498 -0.21123159 0.64455169 9081496
0.055191264 -0.21120255 0.6452288 8884116
0.065142483 -0.21128988 0.64512527 8949651
0.075044826 -0.21165338 0.6450873 9015445
0.085061066 -0.21168745 0.64491874 9015444
0.095280476 -0.2120717 0.6453408 9081237
0.1046894 -0.21300718 0.6438027 9081237
0.11493097 -0.21375549 0.64333344 9146772
0.12540518 -0.21552654 0.64384127 9081236
0.1347241 -0.21671215 0.64559251 9278614
0.14513934 -0.21751986 0.64668906 9409429
0.15373813 -0.21871908 0.64830774 9737879
0.1610426 -0.21936212 0.64900005 10132124
0.17745511 -0.21818537 0.64842319 11381160
0.18497263 -0.21805637 0.64563775 10855589
0.19514112 -0.21644408 0.6449886 10460832
0.20508216 -0.21550672 0.64672768 10197917
0.21512672 -0.21582526 0.6466319 10000281
0.22516316 -0.2159044 0.64636838 9803158
0.23494454 -0.21586484 0.64650005 10000537
0.24526902 -0.2165008 0.64519989 9606295
0.25500616 -0.21688648 0.64451712 9343637
0.26469126 -0.21689327 0.64450002 9212564
0.27499345 -0.21781301 0.64293122 9212564
0.28498825 -0.21796797 0.64333355 9212309
0.2946099 -0.21808122 0.64366686 9212309
0.3048135 -0.21867281 0.64403915 9212309
0.31479323 -0.21869841 0.64453667 9146515
0.32508463 -0.21879755 0.64564854 9080724
0.33512616 -0.21879002 0.6458717 9212052
0.3415578 -0.21860914 0.64740002 9277587
-0.2906951 -0.20138562 0.64520007 9935006
-0.28473231 -0.20132701 0.644135 10001056
-0.27429971 -0.20155108 0.64431101 9935262
-0.26518062 -0.20255145 0.64312869 10132640
-0.25484765 -0.20308372 0.64263171 10198432
-0.24495487 -0.20349219 0.64298463 10461088
-0.23512715 -0.20387237 0.64372855 10461603
-0.22503692 -0.20418699 0.64442611 10396324
-0.21498334 -0.20417613 0.64498484 10462118
-0.20507942 -0.20436427 0.64465588 10527654
-0.19495012 -0.20460384 0.64463145 10593447
-0.18494427 -0.20468682 0.64436811 10527911
-0.17481354 -0.20481989 0.64504969 10199205
-0.16512237 -0.2052274 0.64633346 9936033
-0.15512343 -0.20528056 0.64650005 9673374
-0.14508088 -0.20528053 0.64650035 9607581
-0.13491517 -0.20562196 0.64620626 9607581
-0.12482152 -0.20539711 0.64520651 9476509
-0.11501782 -0.20545447 0.64508963 9345181
-0.10504094 -0.20555022 0.64598489 9345181
-0.095103391 -0.20589525 0.64646947 9345181
-0.085283026 -0.20615377 0.64675015 9476767
-0.075046904 -0.20638049 0.6463685 9410974
-0.065549217 -0.20747045 0.64400017 9345182
-0.055136364 -0.20782952 0.64312518 9410717
-0.045168653 -0.2079494 0.64308506 9476767
-0.03500744 -0.20817809 0.64400011 9607840
-0.025011074 -0.20825028 0.64422226 9476253
-0.015323183 -0.20849989 0.6453554 9345181
-0.0050098468 -0.20847979 0.64575011 9279388
0.0046418402 -0.20868626 0.64557147 9279388
0.015042254 -0.20896162 0.64533341 9344924
0.025088156 -0.20912354 0.64583319 9082010
0.035145503 -0.20928542 0.64633328 9016216
0.04483657 -0.2093097 0.64621413 9016216
0.054568276 -0.20924349 0.64818186 8621715
0.065004095 -0.20926803 0.64900011 9081236
0.075085483 -0.20926809 0.64900011 9081238
0.085166864 -0.20926803 0.64900011 9015444
0.094717652 -0.20926803 0.64900011 9081237
0.10320724 -0.20926806 0.64900011 9081237
-0.29118931 -0.19908977 0.64700001 9935263
-0.28466433 -0.1989667 0.64660007 9869727
-0.27496588 -0.19920173 0.64755559 9869981
-0.26715127 -0.19917396 0.64900005 10132126
0.16366783 -0.22003813 0.65100002 10460574
0.10868045 -0.21118675 0.65000004 9015444
0.11505745 -0.21118675 0.64999986 9081237
0.12500772 -0.21139438 0.65200019 9081237
0.1355582 -0.21187061 0.65363997 9212565
0.14486779 -0.21301508 0.65372884 9212565
0.15492298 -0.21487075 0.65388638 9541015
0.16504197 -0.21557306 0.65306693 10329245
0.17427638 -0.21524481 0.65311712 10986660
0.1853268 -0.2141159 0.65337503 10724004
0.19462192 -0.21256241 0.65503937 10329504
0.20492344 -0.21196373 0.65549994 10197917
0.21518688 -0.21229108 0.65545452 10066331
0.2250555 -0.21248578 0.65566671 9737366
0.23497072 -0.21261998 0.65578556 9737366
0.24501945 -0.21275508 0.65649992 9540502
0.25495878 -0.21271291 0.65663153 9408916
0.26533869 -0.21292959 0.65605009 9343379
0.27487645 -0.21444252 0.65300035 9278357
0.28525835 -0.21475427 0.65277761 9146772
0.29496387 -0.21482681 0.65300012 9080724
0.30495751 -0.21528395 0.65325034 9080980
0.31486711 -0.21556486 0.65332866 9146516
0.32494682 -0.21577363 0.65425003 9080467
0.33495948 -0.21592051 0.65498537 9212052
0.34350249 -0.21580678 0.65525573 9211796
-0.26224869 -0.20107713 0.65000004 10197919
-0.25480887 -0.20107712 0.64999992 10132639
-0.24463384 -0.2010048 0.65176922 10330275
-0.23504588 -0.20098002 0.65278584 10527654
-0.22490013 -0.20103316 0.65255183 10396068
-0.2149433 -0.20100705 0.65266675 10527654
-0.20485109 -0.20117405 0.65261298 10462118
-0.19503281 -0.20153369 0.65215397 10527654
-0.18458556 -0.20148012 0.65288109 10330789
-0.17512095 -0.20200042 0.65473497 10133668
-0.16503714 -0.20200695 0.65649992 9870753
-0.15483925 -0.20200698 0.6565001 9739167
-0.14517808 -0.20200698 0.65649992 9542046
-0.13523658 -0.20205136 0.65636832 9607839
-0.12483019 -0.20205362 0.655128 9542560
-0.11496527 -0.20208269 0.65500015 9476509
-0.10499924 -0.20211129 0.65487522 9410974
-0.094812274 -0.20197473 0.6563639 9410974
-0.084965862 -0.20234939 0.6562131 9410974
-0.075132228 -0.20249011 0.65601486 9344925
-0.065196566 -0.20409477 0.65377808 9344925
-0.054936849 -0.20500611 0.65263164 9345181
-0.044829052 -0.20519134 0.65268439 9345181
-0.034989581 -0.20536345 0.65350032 9410974
-0.025095405 -0.20532022 0.65363163 9410460
-0.014974257 -0.20557185 0.65389484 9410717
-0.0050777304 -0.20567761 0.65450019 9213596
0.0052926205 -0.20590508 0.65430796 9213595
0.015247597 -0.20610005 0.65414315 9279388
0.024892794 -0.20624004 0.65458763 9278875
0.034826789 -0.20669672 0.65572762 9147288
0.045002755 -0.2065843 0.65598553 9278615
0.054832481 -0.20710804 0.65626317 8884374
0.06495028 -0.20742425 0.65636826 9081237
0.074877672 -0.20738094 0.6565001 9080982
0.084811099 -0.20733763 0.65663183 9015700
0.095001206 -0.20742418 0.65636843 9081236
0.10514059 -0.207486 0.65621042 9015444
0.11491799 -0.20865597 0.65375018 9147030
0.12448657 -0.20874563 0.65546435 9081492
0.13452782 -0.20870657 0.6566087 9278614
0.14465116 -0.20919679 0.65857142 9146772
0.15220973 -0.20979527 0.65900004 9278357
0.19577499 -0.20971566 0.65875 10329503
0.20469862 -0.20947692 0.65800005 10197917
0.21491978 -0.20947692 0.65800005 10066331
0.22548318 -0.20979525 0.65899998 10000280
0.23518112 -0.20979525 0.65899998 9868952
0.24487907 -0.20979525 0.65899998 9540245
0.25511581 -0.20979527 0.65899998 9539988
0.26319742 -0.20979527 0.65900004 9277586
-0.29208159 -0.19350912 0.65300006 10066847
-0.28544641 -0.19582364 0.65275389 10066848
-0.27508274 -0.19655266 0.65473366 10066591
-0.26568913 -0.19850823 0.65435004 10066334
-0.25508082 -0.19901147 0.65384614 10067103
-0.24541368 -0.19902663 0.65393555 10198688
-0.23511101 -0.19899426 0.65444833 10396068
-0.22493945 -0.19904806 0.65421432 10396068
-0.21513556 -0.19902074 0.65433341 10527654
-0.20514797 -0.19899426 0.65444833 10462118
-0.19498709 -0.19904806 0.65421444 10462374
-0.18527614 -0.1990191 0.65523076 10265252
-0.17530398 -0.19915764 0.6578235 10068387
-0.16512887 -0.19900617 0.65899998 10002593
-0.15866357 -0.19900616 0.65900004 9871007
-0.12506945 -0.19978143 0.65800005 9608353
-0.11484824 -0.19978143 0.65800005 9476767
-0.10516502 -0.19978143 0.65800005 9607838
-0.099247478 -0.19978145 0.65800005 9410972
0.14902167 -0.21029992 0.66400003 9212564
0.15669924 -0.21083643 0.66159981 9278357
0.1654188 -0.21103209 0.66119438 9738137
0.17513362 -0.21101451 0.66113877 10197917
0.18482485 -0.21097058 0.66099989 10197917
0.1918727 -0.21074705 0.662 10461089
0.22610821 -0.21029994 0.66400003 10066329
0.23479404 -0.21029994 0.66400003 9934487
0.24510844 -0.21029994 0.66400003 9606039
0.2554228 -0.21029994 0.66400003 9540244
0.26588523 -0.21049757 0.66400003 9408914
0.2759243 -0.21169552 0.6621027 9278100
0.2852816 -0.21190763 0.6622448 9146771
0.29536238 -0.21214917 0.66300017 9015185
0.30511922 -0.21214917 0.66300005 9080721
0.31523964 -0.21199468 0.66422218 9080722
0.3252584 -0.21215494 0.66472232 9146002
0.33492878 -0.21208407 0.66449994 9211794
0.34485313 -0.2121726 0.66477764 9277588
0.35160109 -0.21198498 0.66675013 9146260
-0.15443876 -0.20051609 0.66400003 9739678
-0.1452101 -0.20051609 0.66400003 9476767
-0.13541664 -0.20048253 0.66388893 9542560
-0.12493573 -0.20021412 0.66300005 9542560
-0.1147505 -0.20041543 0.66366673 9542303
-0.10503823 -0.20051609 0.66400003 9542303
-0.0952667 -0.20051609 0.66400003 9410973
-0.08495231 -0.20051607 0.66400003 9476510
-0.074637905 -0.20051609 0.66400003 9279388
-0.063614853 -0.20153341 0.66126466 9279390
-0.054845907 -0.20177129 0.66100001 9147804
-0.044664837 -0.2017203 0.66188234 9345181
-0.034980498 -0.20198832 0.66350007 9345181
-0.024955437 -0.20203404 0.66336846 9279131
-0.014922402 -0.20215741 0.66405559 9344924
-0.0051553124 -0.20229276 0.66450006 9082009
0.0046235807 -0.20229274 0.6645 9213596
0.014959953 -0.20245984 0.66504985 9147801
0.025305934 -0.20259717 0.66549975 9147545
0.035099536 -0.20259717 0.66549975 9081752
0.044893146 -0.20259717 0.66549987 9016216
0.055222936 -0.20310345 0.6657145 8950166
0.065163068 -0.20333734 0.66614294 8818580
0.074892461 -0.20334777 0.66617727 8884372
0.085019261 -0.20349677 0.66698509 9015444
0.09514299 -0.20355539 0.66685742 9015701
0.10454416 -0.20391278 0.66627294 8884372
0.11510355 -0.2060224 0.66250026 9081237
0.12522346 -0.20624739 0.66294754 9147030
0.13547251 -0.20652363 0.66411108 9147030
0.14523028 -0.20681426 0.66535282 9212308
0.155251 -0.20726296 0.66621059 9278357
0.16548048 -0.20738828 0.66688931 9541015
0.1753004 -0.20749474 0.66726434 9738394
0.18504937 -0.20752634 0.66733336 10001052
0.19511914 -0.20769493 0.6666609 10197916
0.20512202 -0.20800006 0.66563141 10132124
0.2151911 -0.20804495 0.66549981 9934745
0.22509964 -0.2079687 0.66655314 9868952
0.23519848 -0.20796911 0.66699994 9803156
0.24522611 -0.20799884 0.66687232 9803673
0.25526416 -0.20796907 0.66700006 9408916
0.26507977 -0.20796907 0.66700017 9343122
0.27398747 -0.20839666 0.66603702 9277586
0.28521463 -0.20901841 0.66511112 9080978
0.29470304 -0.20964471 0.66599995 9080465
0.305197 -0.20984295 0.66599995 9080721
-0.29247165 -0.19137175 0.66433334 10132639
-0.28436339 -0.19220556 0.66332197 10132640
-0.27526182 -0.19302003 0.66529429 10263711
-0.26483566 -0.19554467 0.66228825 10132383
-0.25479788 -0.19564059 0.66223949 10066847
-0.244932 -0.19608675 0.66375011 10132897
-0.23511568 -0.19611841 0.66385722 10264738
-0.22528875 -0.19639935 0.66354096 10264739
-0.21507531 -0.19655706 0.66349989 10330788
-0.2050367 -0.1965102 0.66363162 10396325
-0.19500245 -0.19655699 0.66349989 10331045
-0.1851633 -0.19680628 0.66405267 10265252
-0.17499349 -0.19723813 0.6657998 10133668
-0.1648265 -0.19744574 0.66649997 9936802
-0.15501821 -0.19744577 0.66649985 9739680
-0.14520989 -0.19744574 0.66649985 9608352
-0.13528912 -0.19742097 0.66638166 9608097
-0.12493441 -0.19755417 0.66686654 9476767
-0.11463711 -0.19766007 0.66722226 9476767
-0.1050142 -0.19802667 0.66708511 9476767
-0.095040791 -0.19814104 0.667 9345437
-0.085005574 -0.19817281 0.66687226 9410974
-0.074975125 -0.19814108 0.66700006 9279132
-0.066001676 -0.19875 0.66583329 9279132
-0.055177812 -0.19918491 0.66500002 9410974
-0.045679033 -0.1991235 0.66525 9410718
-0.034569848 -0.19893931 0.66599995 9345181
-0.024768883 -0.19893931 0.66599995 9213595
-0.016065845 -0.19906732 0.66642857 9213595
-0.29247165 -0.18974032 0.66433334 10067103
-0.28896046 -0.18993072 0.66500002 10197919
0.29761371 -0.2103198 0.671 9146257
0.30529392 -0.21031979 0.671 9211794
0.31497279 -0.21055491 0.67174995 9146001
0.32469866 -0.2108074 0.67255557 9211794
0.33481538 -0.21094669 0.67299998 9211794
0.34471935 -0.21094669 0.67299998 9211794
0.35297272 -0.21094669 0.67300004 9211540
-0.011256939 -0.20073155 0.67200005 9345181
-0.0052134991 -0.20073153 0.67199999 9147802
0.0046757651 -0.20073153 0.67199999 9213595
0.014586704 -0.20103025 0.67299998 9147801
0.025040904 -0.20103025 0.67299998 9213079
0.035495106 -0.20103025 0.67299998 9016216
0.045399088 -0.20103025 0.67299998 8950423
0.056202643 -0.20087457 0.6736154 8950423
0.065303944 -0.20077728 0.67399991 8884630
0.075222634 -0.20077728 0.67399991 8818837
0.085141331 -0.20077726 0.67399991 9015446
0.095140196 -0.20094274 0.67455554 8949909
0.10641818 -0.20181544 0.67392862 8884373
0.11518947 -0.20252627 0.67249972 9015444
0.12522191 -0.2027439 0.67322224 9081237
0.13522218 -0.20295931 0.67482799 9015443
0.14552568 -0.20342979 0.67550004 9147028
0.15522271 -0.2033944 0.67570603 9212564
0.16497901 -0.2035816 0.67599988 9278357
0.17518993 -0.20363732 0.67589498 9541529
0.18529402 -0.20378435 0.67635316 9803930
0.1949634 -0.20373088 0.6765002 9935258
0.20489241 -0.20409867 0.67588907 10000537
0.21491896 -0.20417595 0.67614287 9803416
0.22479014 -0.20424649 0.67637718 9606550
0.2347513 -0.2043917 0.67685735 9474964
0.24471198 -0.20439158 0.67685729 9540500
0.25486124 -0.20574282 0.67399985 9540757
0.26477996 -0.20574284 0.67399985 9343122
0.27588096 -0.20679453 0.67313331 9212050
0.28529057 -0.20708294 0.67299992 9146514
0.29539067 -0.20722073 0.67344427 9015185
0.30532596 -0.20723806 0.67349976 9146258
0.31495127 -0.20741159 0.67406273 9146258
0.32486778 -0.20786236 0.6755963 9146258
0.33494937 -0.20835374 0.67684036 9211794
0.34454769 -0.20831458 0.67700046 9211794
0.35399839 -0.20866172 0.67715412 9080465
-0.29408962 -0.19040383 0.67050004 10066848
-0.28440788 -0.19072962 0.67199999 10263712
-0.27375305 -0.19140415 0.67296547 10395295
-0.2647478 -0.19192505 0.67199993 10132896
-0.2551012 -0.19210887 0.67264444 10001310
-0.24518877 -0.1919843 0.67384219 10132896
-0.23500969 -0.1919422 0.67400002 10330275
-0.22496901 -0.19247758 0.67467237 10199459
-0.21495841 -0.19265589 0.67457187 10199458
-0.2049605 -0.19273905 0.67486173 10396837
-0.19503663 -0.19290078 0.67542893 10265252
-0.18488613 -0.1929829 0.67536408 10199716
-0.17498414 -0.19369869 0.67627805 10133668
-0.16508724 -0.19376288 0.6765002 9936546
-0.15513174 -0.1937629 0.6765002 9871266
-0.14517628 -0.19376287 0.67650026 9739424
-0.13522077 -0.19376279 0.6765002 9608096
-0.12576231 -0.19388105 0.67618752 9476767
-0.11496891 -0.19485262 0.67449987 9476767
-0.10444474 -0.19550218 0.67499983 9476767
-0.094637483 -0.19554955 0.67499983 9410974
-0.085005097 -0.19570032 0.67499989 9213595
-0.074770659 -0.19610208 0.67500001 9279131
-0.064627133 -0.19690628 0.67281222 9147803
-0.054978088 -0.19706962 0.67236811 9345181
-0.04482805 -0.19713522 0.67288888 9410717
-0.034959152 -0.19731408 0.67350006 9345181
-0.025047814 -0.19731417 0.6735 9279388
-0.015151434 -0.19752538 0.67422241 9147802
-0.0052328953 -0.19760714 0.67450035 9213595
0.0046951361 -0.19765559 0.67466694 9147802
0.014654292 -0.1980634 0.67605585 9147545
0.024804158 -0.19818904 0.6762144 9081752
0.034853473 -0.1981881 0.67630208 9016216
0.044936292 -0.19860128 0.67599994 8950423
0.054602351 -0.19856469 0.67660981 9016216
0.064834587 -0.1985624 0.67775023 8884630
0.074808456 -0.19856244 0.67775029 8884630
0.084782347 -0.19856241 0.67775011 9015446
0.093449108 -0.19871722 0.6773333 9015445
0.10513447 -0.19941746 0.67500007 8884628
0.11506788 -0.19941746 0.67500007 8949908
0.12512639 -0.19961442 0.67566675 9081237
-0.29473802 -0.18731315 0.67378569 10263713
-0.28519812 -0.18808082 0.67615277 10329504
-0.27676088 -0.18847872 0.67686367 10329502
-0.26460922 -0.1894715 0.67500007 10132639
-0.25496802 -0.18968983 0.67577785 10067103
0.12722595 -0.20007512 0.68100005 9146517
0.13618647 -0.20087117 0.68253845 9080979
0.14546829 -0.20122176 0.68299985 9146771
0.15551943 -0.20122178 0.68299985 9212306
0.16528192 -0.20090149 0.68482596 9212564
0.17465979 -0.20089281 0.68507397 9344150
0.18490112 -0.20106742 0.68566668 9607065
0.19481049 -0.20110199 0.68553853 9672601
0.20540741 -0.20127074 0.68492323 9738138
0.21467713 -0.20140241 0.68442863 9868951
0.22508973 -0.20151645 0.68400002 9606294
0.23583467 -0.20131682 0.68475014 9474964
0.24501991 -0.20125027 0.68500018 9343379
0.25473994 -0.20275553 0.68254113 9606036
0.26491871 -0.20298068 0.68330199 9277586
0.27512148 -0.20308946 0.68366694 9080720
0.28463134 -0.20342448 0.6839233 9015185
0.29464346 -0.20389888 0.68449998 9146258
0.30471665 -0.20389889 0.68450004 8949392
0.31484133 -0.20393173 0.68461108 8949392
0.32504189 -0.20423399 0.68529403 9080465
0.33503374 -0.20442165 0.68658781 9146001
0.3452656 -0.20573618 0.68500012 9080207
0.35557678 -0.20619798 0.68499994 9145744
0.36150658 -0.20629697 0.685 9014415
-0.2543875 -0.19021522 0.68162513 10067103
-0.24505013 -0.19031987 0.6820001 10132896
-0.23516506 -0.19044389 0.68244451 10264482
-0.22530715 -0.19059891 0.68300003 10133666
-0.21525604 -0.19059891 0.68300003 10133666
-0.20527038 -0.19066092 0.68322229 10265252
-0.19543946 -0.19087794 0.68400002 10133666
-0.18492624 -0.19098993 0.68400002 10068386
-0.17530775 -0.19143786 0.68400002 10002595
-0.16524193 -0.19143786 0.68400002 10002339
-0.15483558 -0.19125473 0.68465227 10002339
-0.14511019 -0.19143786 0.68400002 9739167
-0.13464141 -0.1912847 0.68454552 9673631
-0.12448967 -0.19151056 0.68409097 9607839
-0.11527172 -0.19222237 0.68283355 9476767
-0.1052494 -0.19226891 0.68300033 9476767
-0.095198281 -0.19226883 0.68300027 9279388
-0.085071504 -0.19263755 0.68357903 9213595
-0.075238705 -0.19298825 0.68357146 9213338
-0.065179154 -0.19298822 0.6835714 9147802
-0.055096027 -0.19318883 0.68428135 9279388
-0.044937082 -0.19314152 0.6841113 9345181
-0.035307929 -0.19324237 0.68363166 9279388
-0.025419721 -0.19352989 0.68350005 9213595
-0.015381353 -0.19379717 0.68444431 9082009
-0.0053143534 -0.19395332 0.6849997 9213595
0.0047724936 -0.19414221 0.68566632 9147802
0.014003064 -0.1947969 0.68500006 9082009
0.024890976 -0.19535726 0.68400002 9147801
0.035116609 -0.19543727 0.68400002 9016216
0.045022707 -0.19591726 0.68400002 8884630
0.055088535 -0.19591731 0.68400002 8884630
0.064839095 -0.19631068 0.68419999 8884629
0.075330243 -0.19676445 0.68500012 8950422
0.085410818 -0.19676445 0.68500012 9015702
0.096132219 -0.19735016 0.68346155 8950166
0.10494628 -0.19785671 0.68264717 8818836
0.11475403 -0.19785984 0.68300027 8753042
0.12462688 -0.19774087 0.68357182 8949908
0.13520746 -0.19797723 0.68533343 9080978
0.14543225 -0.19816981 0.68599987 9080978
0.15522225 -0.19822918 0.68592846 9146771
0.16482681 -0.19828618 0.68762833 9212564
0.17481697 -0.19832927 0.68752778 9212564
0.18475938 -0.19848888 0.68767649 9672858
0.19472237 -0.19896676 0.68720001 9606809
0.20048428 -0.19983667 0.68400002 9738138
0.21670151 -0.19983667 0.68400002 9868694
0.22508971 -0.19983667 0.68400002 9540501
0.23180027 -0.19983667 0.68400002 9474966
-0.30256903 -0.18356611 0.68599993 10329762
-0.2950162 -0.18407716 0.68511099 10395298
-0.28486672 -0.18524866 0.68388897 10263968
-0.27447295 -0.18680653 0.68281144 10395039
-0.26538998 -0.1872672 0.68311149 10198432
-0.25546673 -0.18733267 0.68475425 10067103
-0.24499372 -0.18795115 0.68559974 10198433
-0.23510033 -0.18810938 0.68617737 10198688
-0.22514282 -0.18822539 0.68659985 10330273
-0.21503866 -0.18822536 0.68659967 10330531
-0.20496076 -0.18824993 0.68668896 10199459
-0.19587214 -0.18847966 0.68649983 10133666
-0.18537359 -0.1891982 0.68400002 10133922
-0.17530775 -0.1891982 0.68400002 10068131
-0.16524191 -0.1891982 0.68400002 10002339
-0.15696596 -0.18912072 0.68427271 10068132
-0.14511018 -0.18975812 0.68400002 9739167
-0.13728118 -0.18975812 0.68400002 9739167
0.19998644 -0.20045997 0.69000006 9738138
0.20506352 -0.20045997 0.69000006 9738138
0.21472141 -0.20052452 0.69022226 9672087
0.22480771 -0.20045997 0.69000006 9474709
0.23496185 -0.20045997 0.69000006 9474966
0.24511603 -0.20045997 0.69000006 9408916
0.2549383 -0.20064154 0.69062501 9343122
0.26467916 -0.20075049 0.69100004 9474708
0.27484798 -0.20075049 0.69100004 9080978
0.28610143 -0.20111364 0.69225001 9015184
0.29490694 -0.20133154 0.69300002 9015184
0.30510527 -0.20133151 0.69300002 9015185
0.31558207 -0.20126106 0.6937744 9080464
0.32500947 -0.20123553 0.69481802 9014414
0.33432981 -0.20159601 0.69503576 9014414
0.34488547 -0.20310019 0.69325 9080207
0.35490113 -0.203319 0.69400048 9014415
0.36386573 -0.20312858 0.69469255 8948879
-0.15202428 -0.19029303 0.69000006 9804960
-0.14525485 -0.19029304 0.69000006 9804960
-0.13510069 -0.19029304 0.69000006 9607838
-0.1250252 -0.19041561 0.69044447 9476766
-0.11501256 -0.19066073 0.69133335 9476766
-0.10494152 -0.1908446 0.69199997 9476767
-0.094757929 -0.1908446 0.69199997 9279388
-0.084682256 -0.19108973 0.69288886 9213595
-0.07506483 -0.19112037 0.69299996 9147802
-0.065433092 -0.19112037 0.69299996 9213595
-0.055234794 -0.19112037 0.69299996 9213595
-0.045002203 -0.19096716 0.69244438 9213595
-0.033939283 -0.19112782 0.69199997 9213595
-0.02460433 -0.19141103 0.69200015 9147803
-0.014988489 -0.19144562 0.69212508 9147804
-0.0050341194 -0.19140601 0.69403863 8950424
0.0048351143 -0.19158001 0.69466656 9082009
0.015697129 -0.19247596 0.69300008 9147802
0.025216833 -0.19279955 0.69294405 9082009
0.03514 -0.19286591 0.69282335 9016216
0.045046076 -0.19281493 0.69299996 8884630
0.054959647 -0.19276394 0.69317627 8884630
0.06504599 -0.19307992 0.69274563 8884630
0.075030446 -0.19326155 0.69257116 8884630
0.08497373 -0.1933272 0.6923998 8950423
0.094978504 -0.19352998 0.69353223 8950166
0.10515215 -0.19362175 0.69385695 8818580
0.11520651 -0.19367716 0.69446665 8883860
0.12484822 -0.19433001 0.69400001 8884115
0.13496627 -0.194526 0.69505572 8949650
0.14511716 -0.19484027 0.69582397 9081234
0.15476625 -0.19473796 0.69617659 9212307
0.16458485 -0.19498971 0.69635302 9146772
0.17504583 -0.195941 0.69400018 9212309
0.1848923 -0.19615273 0.69475001 9541014
0.19489971 -0.19689614 0.69473672 9475736
0.20502676 -0.19750834 0.69384587 9738137
0.21491662 -0.19784361 0.6939196 9606295
0.22512446 -0.19794177 0.69306666 9343637
0.23496072 -0.19796307 0.69285727 9409173
0.24481808 -0.19792295 0.69300014 9343380
0.2549845 -0.19802992 0.69365108 9343379
0.26479802 -0.19824873 0.69385684 9408916
0.27480817 -0.19830313 0.69433337 9146258
0.28460053 -0.19845665 0.69528955 9080720
0.29510751 -0.19863842 0.69750023 9080719
0.3049483 -0.19865125 0.69736385 8949391
0.31437933 -0.19853611 0.69858617 8949392
0.32489115 -0.19849712 0.69900006 8883085
0.33232045 -0.19849707 0.69899994 9013899
-0.31120735 -0.18003406 0.69400001 10526884
-0.30462292 -0.18124066 0.69253337 10461091
-0.29439455 -0.18157835 0.69362068 10264482
-0.28516617 -0.18254566 0.69277769 10198689
-0.27528089 -0.18275115 0.69355553 10329762
-0.26530671 -0.18291123 0.69416696 10264225
-0.25483343 -0.18342078 0.69538122 10133409
-0.24496612 -0.18384965 0.69557154 10199202
-0.23512781 -0.18403856 0.69589573 10264738
-0.22494702 -0.18408193 0.69686902 10199202
-0.21597861 -0.18458012 0.69612765 10199459
-0.20526782 -0.18586379 0.69455552 10133666
-0.19425809 -0.18649545 0.69375002 10133666
-0.18493226 -0.18709736 0.69283336 10133666
-0.17477913 -0.18714197 0.69299978 10002337
-0.16485487 -0.18708956 0.69317633 10002594
-0.15524161 -0.18719447 0.69282335 9804960
-0.14531735 -0.187142 0.69299996 9871009
-0.13511904 -0.1871419 0.69299996 9673631
-0.12506436 -0.18751137 0.69432747 9542302
-0.11488234 -0.18771337 0.69511116 9476766
-0.10489581 -0.18791513 0.69523531 9476766
-0.094842277 -0.18833441 0.69499999 9345181
-0.085057467 -0.18851227 0.69595551 9213595
-0.075046591 -0.18848282 0.69613963 9213595
-0.065031558 -0.18852441 0.69600022 9147802
-0.055136431 -0.18856694 0.69585729 9279386
-0.045217738 -0.1884636 0.69577783 9279386
-0.034968894 -0.18841508 0.69559997 9279130
-0.024732327 -0.18841504 0.69559985 9213594
-0.01506645 -0.18844886 0.69572484 9147802
-0.0074159945 -0.18850404 0.69744003 9213594
-0.31091836 -0.17638125 0.69509101 10330019
-0.30556273 -0.17722255 0.69598311 10395555
-0.29896829 -0.17873478 0.69633335 10330018
0.33791137 -0.20095849 0.70039999 9014415
0.34473354 -0.20078653 0.70100015 9080208
0.35515553 -0.20110057 0.70322216 9080208
0.3647497 -0.20099531 0.70484608 9014415
0.37179902 -0.20070198 0.7063334 8948879
-0.0019969561 -0.19075882 0.70000005 9213595
0.0048768623 -0.1909405 0.70066667 9147802
0.015193578 -0.19103134 0.70100009 9082009
0.024936501 -0.19103134 0.70100009 8950423
0.034728888 -0.19072914 0.7019999 8950423
0.045059636 -0.19072914 0.7019999 8950423
0.055390391 -0.19072916 0.7019999 8950423
0.065147214 -0.19072916 0.70199996 8753044
0.074904032 -0.19072917 0.7019999 8818837
0.085234769 -0.1907292 0.7019999 8884630
0.094856277 -0.19103134 0.70100009 8818835
0.1047484 -0.19072919 0.7019999 8818835
0.11507916 -0.19072914 0.7019999 8884372
0.1250346 -0.19128938 0.70213038 8949651
0.13478453 -0.19157636 0.70299989 8949651
0.14533645 -0.19184886 0.70400023 9015444
0.15514931 -0.19188291 0.70412523 9146517
0.16559505 -0.19232891 0.70450002 9146517
0.17530729 -0.19334839 0.70282364 9212308
0.18514557 -0.19332397 0.70347071 9343892
0.19499123 -0.19349532 0.70335305 9475479
0.20475096 -0.19337295 0.70364708 9409943
0.21496169 -0.19355325 0.70341069 9277842
0.22490208 -0.19398645 0.70300013 9408916
0.23499861 -0.19391066 0.70314324 9277587
0.24512556 -0.19398005 0.70382768 9277586
0.25499693 -0.19433287 0.70425445 9408656
0.26481563 -0.19419593 0.70460027 9343378
0.27466226 -0.19473509 0.70476371 9211793
0.28480086 -0.19524227 0.70587474 9014671
0.29421169 -0.19641338 0.70522225 9080208
0.30462468 -0.19673821 0.70499998 8949392
0.31499955 -0.19673818 0.70499998 9014672
0.32537442 -0.19673823 0.70499998 8817806
0.33592567 -0.19741155 0.70365721 8948620
0.34511319 -0.19785702 0.70510542 9014414
0.35476521 -0.19830044 0.70668435 9014415
0.36483958 -0.1983396 0.70736343 9080208
0.37201127 -0.19824639 0.70820004 8948879
-0.29470125 -0.18060562 0.70062494 10264482
-0.28543267 -0.18090279 0.70177788 10330275
-0.27452621 -0.18080123 0.70250005 10330275
-0.2652401 -0.18064237 0.70300001 10198689
-0.25521624 -0.18087079 0.70388907 10264482
-0.24508852 -0.18104209 0.70455575 10330275
-0.23487002 -0.18115628 0.70499998 10264995
-0.22507153 -0.18115628 0.70499998 10199459
-0.21383546 -0.18224517 0.70294136 10199459
-0.20491612 -0.18287016 0.70278209 10067873
-0.19510506 -0.18314134 0.70417672 10133666
-0.18521839 -0.18296541 0.70533341 10067873
-0.17537691 -0.18327151 0.70505452 10133666
-0.16512524 -0.18345746 0.70499992 10002593
-0.15475032 -0.18345736 0.70499992 9870753
-0.14495179 -0.18345742 0.70499992 9739424
-0.13515328 -0.1834574 0.70499992 9608351
-0.12489475 -0.18363088 0.70566648 9542558
-0.11478718 -0.18368261 0.70547038 9410973
-0.10480934 -0.1837166 0.70549977 9410974
-0.094908498 -0.18407217 0.70514268 9410716
-0.085200004 -0.18441498 0.70498127 9279131
-0.075266369 -0.18599379 0.70400023 9147802
-0.065320589 -0.18608597 0.70400023 9213595
-0.054960411 -0.186086 0.70400023 9147801
-0.045175787 -0.18608595 0.70400023 9147801
-0.035391178 -0.18608591 0.70400023 9082007
-0.025030993 -0.18608589 0.70400023 9147800
-0.014674173 -0.18614474 0.70422244 9147800
-0.0041040466 -0.18699956 0.70390922 9147800
0.0048977365 -0.18771857 0.70366693 9147801
0.015258604 -0.18780747 0.70400017 9082009
0.025075058 -0.18804161 0.70487523 9016216
0.034954473 -0.18790859 0.70653361 9016216
0.04480822 -0.18805484 0.70665014 8950423
0.054877196 -0.18847813 0.70649999 9082009
0.065130219 -0.18846306 0.70662856 8753044
0.074948661 -0.18849409 0.70636362 8818837
0.084912889 -0.18847813 0.70650005 8884630
0.095012054 -0.18852884 0.70483738 8753042
0.1049392 -0.18842158 0.70609105 8753042
0.11494858 -0.18847816 0.70650005 8752786
0.12521777 -0.18847077 0.70665717 8949651
0.13514864 -0.18868844 0.70709085 9015444
0.14330265 -0.18887872 0.70740914 8883858
-0.31064522 -0.1720103 0.70300001 10264226
-0.30455834 -0.17503746 0.70392859 10330018
-0.29487443 -0.17751372 0.70496458 10330018
-0.28520083 -0.17797056 0.70576006 10330275
-0.2757698 -0.17812592 0.70623904 10330275
-0.26562181 -0.17833811 0.70736343 10198689
-0.25521624 -0.17914219 0.70388889 10264482
-0.24508852 -0.17931187 0.70455557 10330275
-0.23487003 -0.17942499 0.70499998 10264738
-0.22507152 -0.17942499 0.70499998 10199457
-0.21544082 -0.17956637 0.70555556 10199458
-0.2053161 -0.17979258 0.70644444 10264738
-0.19507504 -0.17993397 0.70700002 10264736
0.15470171 -0.19115913 0.71000004 8949907
0.16480149 -0.19084632 0.71100014 9146772
0.17468339 -0.19084635 0.7110002 9212310
0.1851466 -0.19084638 0.7110002 9146515
0.19502848 -0.19084637 0.71100014 9278357
0.20504029 -0.19096565 0.7114445 9212564
0.21509442 -0.19111477 0.71199995 9277844
0.2249902 -0.19111477 0.71199995 9277842
0.23488602 -0.19111477 0.71199995 9277585
0.24512646 -0.19081683 0.71395993 9211793
0.25493759 -0.19091673 0.71491671 9343120
0.26490447 -0.19093911 0.71500009 9343120
0.2752021 -0.19117011 0.71507698 9080207
0.28508332 -0.19209564 0.71444458 8883599
0.29497984 -0.19320416 0.71377349 8883598
0.30481711 -0.19370364 0.71425396 8817805
0.31492969 -0.19398217 0.71399993 8817806
0.32485327 -0.19398223 0.71399987 8883599
0.33483639 -0.19401644 0.7141251 8817806
0.34462941 -0.19427098 0.71506244 8817549
0.3547968 -0.19461358 0.71594131 9014158
0.36513641 -0.19574291 0.71399999 9014415
0.37414628 -0.1959462 0.71399993 9014415
-0.21391784 -0.18004082 0.71199995 10199458
-0.20479406 -0.1802094 0.71266675 10330016
-0.1944582 -0.18034987 0.71322238 10264480
-0.18474793 -0.18054654 0.71400011 10067872
-0.17412382 -0.18101412 0.71400005 10133666
-0.16490071 -0.18113102 0.71400005 10068130
-0.15497713 -0.18113102 0.71399999 9936800
-0.14505351 -0.18113102 0.71400005 9870752
-0.13512991 -0.18113102 0.71399999 9739424
-0.12475704 -0.18132834 0.71477783 9608094
-0.11471976 -0.18116273 0.71412504 9542558
-0.10477536 -0.18113102 0.71399999 9476767
-0.094851762 -0.18113102 0.71400005 9410459
-0.084112138 -0.18166727 0.71324998 9344409
-0.075085066 -0.1829429 0.71184278 9147288
-0.064898647 -0.18294851 0.71199954 9147802
-0.054728147 -0.18296611 0.71247011 9082009
-0.044883747 -0.1832623 0.71282321 9082008
-0.034959514 -0.183147 0.71317595 9082007
-0.025069237 -0.18326218 0.71282315 9147800
-0.014860841 -0.18324763 0.7131663 9082007
-0.0049561374 -0.18351017 0.71418756 9082007
0.0049763676 -0.18374732 0.71511132 9278873
0.014932372 -0.1839596 0.71593761 9213078
0.02488471 -0.18397552 0.71600014 9213079
0.034697291 -0.18422483 0.71559989 9016215
0.045409594 -0.18531589 0.71399999 9082009
0.055169754 -0.18580683 0.71400023 8884887
0.065093353 -0.18580683 0.71400017 8884630
0.074640349 -0.18608966 0.71400017 8884630
0.084940553 -0.18639134 0.71399999 8884117
0.095595323 -0.18509355 0.71574461 8818579
0.10374533 -0.18527699 0.71578056 8818322
0.11471137 -0.18639129 0.71400005 8752786
0.1252187 -0.18639129 0.71400005 8949651
0.1352386 -0.18652184 0.71450001 8949651
0.14555442 -0.18729489 0.71381819 9147029
0.15476999 -0.18787386 0.71299958 8949906
0.16489872 -0.18767282 0.71445 9147028
0.17486468 -0.18781504 0.71509069 9278358
0.18499348 -0.18805529 0.71568263 9146515
0.19493623 -0.18800488 0.71590883 9212564
0.2046766 -0.18837024 0.7156108 9146771
0.21510907 -0.18876116 0.71654296 9146771
0.22508837 -0.18881704 0.71636379 9146770
0.23505442 -0.18878366 0.71662873 9146000
0.24500531 -0.18869701 0.71646148 9277585
0.25488386 -0.18872307 0.71695834 9211793
0.26486388 -0.18873414 0.71700007 9211793
0.27486172 -0.1887563 0.71708339 9014414
0.28282887 -0.18989818 0.71400005 9014415
-0.3122921 -0.17167445 0.71600002 10461348
-0.30529326 -0.17289799 0.71421039 10330018
-0.29634786 -0.17378457 0.71469212 10461091
-0.28568998 -0.17467459 0.71388894 10330275
-0.27516693 -0.17529863 0.7144708 10330275
-0.26488256 -0.17582576 0.71492296 10264482
-0.25514171 -0.17698368 0.71334386 10330275
-0.24479072 -0.17756122 0.71377742 10264482
-0.23494476 -0.17761676 0.71399993 10264737
-0.22502114 -0.1776168 0.71399999 10330529
-0.21523257 -0.17753735 0.71506828 10264738
-0.20514278 -0.17761222 0.71633327 10133407
-0.1955404 -0.17785031 0.71611094 10198944
-0.18474793 -0.17879309 0.71400005 10067872
-0.17482433 -0.1787931 0.71399999 10068386
-0.16490074 -0.17879309 0.71400005 10002336
-0.15525182 -0.17882746 0.71400005 10067873
-0.14505351 -0.17937759 0.71400011 9870752
-0.13512991 -0.17937759 0.71400011 9739167
-0.12475705 -0.179573 0.71477789 9608094
-0.11471976 -0.179409 0.7141251 9476765
-0.10477536 -0.17937759 0.71400011 9410974
-0.094851762 -0.17937759 0.71400011 9410459
-0.08496616 -0.17946132 0.71433342 9344409
-0.075200811 -0.17984864 0.71587503 9212824
-0.065263256 -0.17988004 0.71600002 9213593
-0.054726478 -0.17988004 0.71600002 9147802
-0.044775076 -0.17988004 0.71600002 9082008
-0.034823682 -0.17988004 0.71600002 9082007
-0.026043035 -0.17988004 0.71600002 9147800
0.28520557 -0.19031519 0.72000003 9014415
0.29515216 -0.19065502 0.72128576 8883599
0.30517778 -0.1912397 0.72300005 8817804
0.31476671 -0.19170004 0.72299987 8752011
0.32526463 -0.19137247 0.72400004 8883597
0.33473527 -0.19137247 0.72400004 8817549
0.34479791 -0.19137245 0.72400016 8817293
0.35510719 -0.19150467 0.72450012 8882828
0.36523867 -0.19290258 0.72270584 9014157
0.37505147 -0.19287628 0.72300005 9014414
0.38167888 -0.1922912 0.72479999 8948622
-0.074664384 -0.18020537 0.72200006 9213080
-0.065219872 -0.18020537 0.72200006 9147800
-0.055185083 -0.18020537 0.72200006 9147801
-0.045150287 -0.18020537 0.72200006 9082008
-0.035115495 -0.18020537 0.72200006 9082007
-0.024372371 -0.18044178 0.72200006 9147800
-0.015047507 -0.18082422 0.72211123 9082007
-0.0050180675 -0.18104684 0.72299993 9082007
0.0050363052 -0.18118595 0.72355556 9147800
0.015112231 -0.18142241 0.7245 9147544
0.02519751 -0.18154766 0.72500014 9016216
0.036319382 -0.18194494 0.72382623 9016215
0.044935025 -0.18228312 0.7228235 9082265
0.054973334 -0.1821631 0.72317648 8884887
0.065027498 -0.18228309 0.72282356 8753301
0.075245626 -0.18241321 0.72294557 8884629
0.085111827 -0.18278074 0.72240013 9081239
0.09382838 -0.18207981 0.7239998 9015445
0.10587358 -0.18237871 0.72439981 8883858
0.11495638 -0.18292226 0.72342873 8818066
0.12501095 -0.18292232 0.72342885 8949651
0.13489364 -0.18320742 0.72317648 9015444
0.1447283 -0.18366081 0.72400004 9015444
0.15474647 -0.18400371 0.72494131 8949651
0.16495824 -0.1840626 0.72599995 9081236
0.1751103 -0.184228 0.7258234 9147029
0.18518357 -0.18410772 0.72617632 9081236
0.19498573 -0.18416791 0.72599989 9081236
0.20499861 -0.1844701 0.72561806 9146771
0.21423599 -0.18504979 0.72534049 9146771
0.22523069 -0.18603846 0.72400033 9212051
0.23502006 -0.18644881 0.7240001 9014414
0.24497676 -0.18679231 0.72462511 9277585
0.25517851 -0.18688904 0.72500014 9146000
0.265255 -0.18688899 0.72500014 9146001
0.27473879 -0.18688898 0.72500014 9146001
0.28515545 -0.18767253 0.7234664 9014414
0.295059 -0.18795203 0.72454286 8883341
0.30471176 -0.18842708 0.72637498 8883597
0.31455645 -0.18852545 0.72642851 8686475
0.32526463 -0.18900183 0.72400004 8883597
0.33236763 -0.18900184 0.72400004 8817806
-0.31403074 -0.170966 0.72542858 10461861
-0.30478266 -0.17110065 0.72599989 10330275
-0.29379866 -0.1718424 0.72309661 10330275
-0.28486454 -0.17217858 0.72306657 10330275
-0.2750181 -0.17230564 0.72360009 10264481
-0.26506883 -0.17231807 0.72487772 10330275
-0.25456038 -0.17240715 0.72532767 10330531
-0.24485406 -0.17277308 0.72557122 10330531
-0.23502043 -0.17285125 0.72539991 10330275
-0.22522029 -0.1745577 0.72347993 10330275
-0.21515553 -0.17477791 0.72400016 10199202
-0.20493859 -0.17515345 0.72555554 10133666
-0.19405445 -0.1758302 0.72436351 10067873
-0.1849971 -0.17624329 0.72317654 10068129
-0.17496489 -0.17636609 0.72282344 10068129
-0.16520356 -0.1763047 0.72299981 9936800
-0.15500584 -0.17642622 0.72289306 10002337
-0.14514674 -0.17684236 0.72278589 9871008
-0.13530122 -0.17710422 0.72385752 9804960
-0.12527679 -0.17727634 0.72456175 9607838
-0.11510582 -0.17724855 0.72444475 9542301
-0.10493129 -0.17706959 0.72371435 9476509
-0.095235586 -0.17748266 0.7228846 9345179
-0.085154161 -0.17751388 0.72352952 9278873
-0.07537362 -0.17762075 0.72527927 9410202
-0.065186471 -0.17749238 0.72576755 9147800
-0.055107031 -0.17757691 0.72542876 9147800
-0.045012165 -0.17749238 0.72576767 9082008
-0.034942143 -0.17757693 0.72542876 9082007
-0.025205765 -0.17753416 0.72560018 9147800
-0.015122527 -0.17756131 0.72571129 9082007
-0.005043054 -0.17777884 0.72659987 9082007
0.0031494168 -0.17812695 0.72608 9213336
0.015112231 -0.17964321 0.7245 9147800
0.02519751 -0.17976719 0.72499996 9016216
0.034681264 -0.17976721 0.72499996 9016216
-0.32080856 -0.16694054 0.72599995 10395812
-0.31654489 -0.16777369 0.72574991 10461604
-0.30478269 -0.16931774 0.72599995 10330275
-0.29469228 -0.16931774 0.72599995 10330275
-0.28499392 -0.16955099 0.72700012 10330530
-0.2750771 -0.16966757 0.72750008 10461346
-0.26753032 -0.16978419 0.72800004 10395809
0.33870301 -0.19056815 0.73000002 8752013
0.34484982 -0.19066603 0.73037499 8817292
0.3547056 -0.19082919 0.73100001 8882828
0.36445627 -0.19092709 0.73137498 9014413
0.37493992 -0.19109024 0.73199999 8948621
0.38391685 -0.19109024 0.73200005 8948622
0.017636724 -0.18005814 0.73100001 9082009
0.024808403 -0.18005814 0.73100001 8950423
0.034996673 -0.18019496 0.73155552 9016216
0.045189898 -0.18030444 0.73199999 9016216
0.054765213 -0.18030444 0.73199999 8950423
0.064938992 -0.18030444 0.73199999 8884630
0.075112768 -0.18030444 0.73199999 8884630
0.084688097 -0.18030444 0.73199999 8949910
0.094934225 -0.18044131 0.73255563 9015446
0.10517913 -0.18055078 0.73300004 8949651
0.11476754 -0.18055078 0.73300004 8818065
0.12495521 -0.18055078 0.73300004 8949651
0.13594191 -0.18095078 0.73299998 9081237
0.14478187 -0.18121259 0.73324996 9081237
0.15463713 -0.18152149 0.73450005 8949651
0.16495621 -0.18164505 0.7349999 9015444
0.17517169 -0.18164505 0.73499995 9081237
0.18478623 -0.18164507 0.73499995 9147030
0.19500174 -0.18164505 0.7349999 8883858
0.2052172 -0.18164507 0.73499995 9015186
0.2164568 -0.18227486 0.73319989 9080978
0.22502923 -0.18234347 0.73299986 9146771
0.23491216 -0.18267947 0.73305762 9146771
0.24478723 -0.18297215 0.73361009 9080978
0.25501356 -0.18316245 0.73339999 9014926
0.26521674 -0.18337977 0.73475945 9014414
0.27474549 -0.18344022 0.73500013 9146000
0.28473118 -0.18357982 0.73506773 8948622
0.29487357 -0.18393824 0.73616993 8817548
0.30527431 -0.18567613 0.73428571 8817550
0.31518376 -0.18585671 0.73500007 8620683
0.32506433 -0.18725719 0.7325623 8686475
0.33483684 -0.18722273 0.73331231 8752011
0.34491006 -0.18726224 0.73388231 8751755
0.35495618 -0.18739903 0.73400021 8817035
0.36458883 -0.18749522 0.73447841 8882829
0.37497613 -0.18796575 0.7358402 8948621
0.38445017 -0.18778487 0.73636395 8882829
0.39008051 -0.18721946 0.73800004 8882828
-0.27370816 -0.17021337 0.73500007 10396066
-0.26491809 -0.17035812 0.73562509 10527395
-0.25482529 -0.17044498 0.73600006 10396067
-0.24443139 -0.17032917 0.7355001 10330530
-0.23330663 -0.17095846 0.73391676 10264738
-0.22477344 -0.17174326 0.73153627 10264995
-0.21464907 -0.17183769 0.73145431 10199459
-0.20470124 -0.17213233 0.73341882 10133666
-0.19509491 -0.17272896 0.73430783 10068129
-0.1848406 -0.17256621 0.73480022 10002593
-0.17498304 -0.17252706 0.73500025 9805471
-0.16541339 -0.17305164 0.73338711 9936800
-0.15490621 -0.17335044 0.73299986 10002593
-0.14478275 -0.17342922 0.73333329 9870753
-0.13471439 -0.17358689 0.73400003 9804960
-0.12511294 -0.17358686 0.73400003 9739167
-0.11547332 -0.17352776 0.73375005 9673374
-0.10516642 -0.17335041 0.73299986 9410716
-0.09497872 -0.17395049 0.73299986 9476508
-0.084803179 -0.17397684 0.73311096 9410715
-0.075088315 -0.17454635 0.7347241 9410715
-0.065192364 -0.17502671 0.73499995 9213593
-0.054976892 -0.17502668 0.73500007 9147802
-0.044740122 -0.17493741 0.73462486 9016216
-0.035099044 -0.17478858 0.73400003 9082007
-0.024897469 -0.17478856 0.73399997 9082007
-0.014697682 -0.17481834 0.73412514 9082007
-0.0051013548 -0.1750267 0.73499995 9082007
0.0061184461 -0.17637607 0.73319137 9213336
0.015110561 -0.17672104 0.73323065 9213593
0.024910213 -0.17658377 0.73400003 9082008
0.034783877 -0.17695987 0.73516005 9082009
0.045028619 -0.17701033 0.7361539 9082009
0.054971427 -0.17711975 0.73595768 9016216
0.064898379 -0.17761691 0.73542887 8884886
0.075120501 -0.17752887 0.73576778 8884886
0.085140266 -0.17764436 0.73590022 8950423
0.095066011 -0.17781191 0.73623818 9015446
0.10497069 -0.1778138 0.73660004 8949652
0.11497802 -0.17777023 0.73676753 8949651
0.12495521 -0.17875069 0.73299992 9015444
0.13514288 -0.17875069 0.73299992 9081237
0.14478187 -0.17881164 0.73325002 9147030
0.15463711 -0.1791165 0.73450005 9015443
0.16405484 -0.17953925 0.73500007 9015699
0.17517169 -0.17984007 0.73500007 9081491
0.18478625 -0.17984007 0.73500007 9147284
0.19500171 -0.17984007 0.73500007 8883858
0.20521718 -0.17984007 0.73500007 8949650
0.21362992 -0.17984007 0.73500007 9080978
-0.3223238 -0.16509031 0.73899996 10527395
-0.31479001 -0.16662268 0.73512673 10396068
-0.3048054 -0.16684535 0.73610353 10330275
-0.29513618 -0.16691878 0.73642838 10396066
-0.28592911 -0.16791734 0.73445708 10396066
-0.27521676 -0.16851988 0.73470002 10396066
-0.26491809 -0.16855159 0.73562503 10461859
-0.25482529 -0.16863751 0.73600006 10396066
-0.24443141 -0.16852295 0.73549992 10396066
-0.23492563 -0.16860889 0.73587507 10265250
-0.22504428 -0.1688666 0.73700023 10265250
-0.21480098 -0.1688666 0.73700017 10199459
-0.20486411 -0.16912122 0.7381112 10199459
-0.19564734 -0.16932492 0.73900002 10133923
-0.18517488 -0.1693249 0.73900008 10068130
-0.17576693 -0.16949776 0.73900002 9871007
-0.16825783 -0.16992983 0.73900002 9871007
0.16751444 -0.180095 0.74100006 9015698
0.17539003 -0.18009499 0.74100012 9081491
0.18514429 -0.18015575 0.7412501 9081492
0.19477615 -0.18009499 0.74100012 9015444
0.20507501 -0.18009499 0.74100012 8949394
0.2154109 -0.18012537 0.74112511 9080978
0.22548607 -0.18042918 0.74237502 9146771
0.23543389 -0.18061146 0.74312502 9015185
0.24544269 -0.18082413 0.74400002 9080978
0.25517496 -0.18082413 0.74400002 9015185
0.26490727 -0.18082413 0.74400002 8948877
0.27463955 -0.18082413 0.74400002 9014156
0.28446865 -0.1808849 0.74425 9146000
0.29585317 -0.18095359 0.74569231 8882829
0.3049219 -0.18256666 0.74368745 8817547
0.31533572 -0.1829647 0.74531251 8751755
0.3247233 -0.18322052 0.74528593 8752011
0.33501551 -0.18423034 0.74300003 8686218
0.34473476 -0.18423034 0.74300003 8751754
0.35506138 -0.18423036 0.74300003 8751754
0.36538804 -0.18423034 0.74300003 8817034
0.37554976 -0.1844473 0.74387521 8882828
0.38525328 -0.18472628 0.74499995 8882829
0.3919532 -0.18472628 0.74499995 8817036
-0.19268541 -0.1713713 0.74000001 10002593
-0.17290112 -0.17031811 0.74600005 9936800
-0.16411312 -0.17110872 0.74211526 9871007
-0.15523717 -0.17116511 0.74174988 10068129
-0.14498621 -0.17123568 0.74205542 9870753
-0.13475502 -0.17133878 0.74249983 9804960
-0.12502705 -0.17131709 0.74240613 9739167
-0.11521287 -0.17116511 0.74174982 9673374
-0.10501583 -0.17113057 0.74137139 9410715
-0.094745383 -0.17113248 0.74184841 9345179
-0.084908426 -0.17120111 0.74190605 9476252
-0.074550189 -0.17175341 0.74274337 9410202
-0.064704463 -0.17210844 0.74319994 9410458
-0.054982632 -0.17210838 0.74320012 9278873
-0.04523778 -0.17202088 0.74282491 9213080
-0.035267673 -0.17197213 0.74299985 9147287
-0.024962096 -0.17205261 0.74260449 9213079
-0.014877828 -0.1720943 0.74314982 9147543
-0.0051624319 -0.17224449 0.74379969 9082007
