# .PCD v0.7 - Point Cloud Data file format
VERSION 0.7
FIELDS x y z
SIZE 4 4 4
TYPE F F F
COUNT 1 1 1
WIDTH 265
HEIGHT 1
VIEWPOINT 0 0 0 1 0 0 0
POINTS 265
DATA ascii
-0.13400747 -0.040274404 0.46899998
-0.1251884 -0.040274404 0.46899998
-0.15444866 -0.033434995 0.46843889
-0.14462715 -0.033806048 0.46722278
-0.13474624 -0.034651689 0.46665257
-0.12493995 -0.034627639 0.46660984
-0.11562828 -0.033588156 0.46755993
-0.15461317 -0.025672423 0.46808028
-0.14497811 -0.024956157 0.46674547
-0.13505442 -0.025133496 0.46600008
-0.12533332 -0.025652394 0.46648979
-0.11627901 -0.02724055 0.46778661
-0.13451509 -0.05093582 0.47900006
-0.12668282 -0.05093582 0.47900003
-0.1543131 -0.043375626 0.47454718
-0.14478585 -0.044634014 0.47511736
-0.13494593 -0.045243416 0.47368437
-0.12518112 -0.045138136 0.47353876
-0.11547641 -0.044229105 0.47505161
-0.10548914 -0.041923266 0.47700006
-0.098486654 -0.041133132 0.47900003
-0.15358277 -0.038367648 0.47071105
-0.145757 -0.038865805 0.47053334
-0.13928853 -0.039206054 0.47000003
-0.12046001 -0.039206054 0.47000003
-0.11350878 -0.037718631 0.47125009
-0.10515579 -0.034852531 0.47310048
-0.097782582 -0.034238674 0.47542271
-0.15619576 -0.021508025 0.47000018
-0.14305055 -0.020397114 0.47099999
-0.13498372 -0.020400207 0.47107148
-0.12339944 -0.021402806 0.47173691
-0.11391994 -0.023564538 0.47313514
-0.10503372 -0.025630245 0.47529733
-0.097754426 -0.026668979 0.47672579
-0.16047198 -0.012066613 0.47700003
-0.15526876 -0.015849842 0.47473928
-0.14505744 -0.016599478 0.47473693
-0.13503052 -0.016720269 0.47477505
-0.12500668 -0.017881704 0.47588226
-0.11499047 -0.019511802 0.47764295
-0.16297568 -0.080255531 0.48800004
-0.16232964 -0.074854821 0.48817679
-0.15574919 -0.073179007 0.48855552
-0.14494656 -0.071950927 0.48873484
-0.1348338 -0.073135838 0.4884643
-0.12501466 -0.073073089 0.48840907
-0.11598761 -0.072900645 0.48884413
-0.16220553 -0.065246783 0.48749301
-0.15505879 -0.064925857 0.48740718
-0.14509317 -0.065376624 0.48729372
-0.13503864 -0.065278955 0.4872196
-0.12485317 -0.065241575 0.48743439
-0.11599082 -0.064727239 0.48849556
-0.16212292 -0.055921748 0.48578575
-0.15518577 -0.054621626 0.4842135
-0.14486909 -0.055302456 0.48330632
-0.13514602 -0.056116413 0.48361582
-0.12491684 -0.055670079 0.48334786
-0.11498129 -0.054820646 0.48539272
-0.10609117 -0.053333893 0.48770449
-0.099743158 -0.051999185 0.48900002
-0.15480992 -0.048291676 0.47999975
-0.14568876 -0.049569793 0.48019999
-0.13950509 -0.049863365 0.48000002
-0.12150321 -0.04988414 0.48019999
-0.11308945 -0.048490208 0.48076922
-0.10447159 -0.046962541 0.48293748
-0.098497845 -0.046571068 0.48592323
-0.10508626 -0.020416819 0.4805384
-0.097259611 -0.023565672 0.4806667
-0.153505 -0.01163645 0.48200005
-0.14478299 -0.011810441 0.48255792
-0.13442734 -0.011986398 0.48259264
-0.12470708 -0.013249938 0.48394996
-0.11493122 -0.015107455 0.48489833
-0.10492182 -0.015332949 0.48465252
-0.099067986 -0.015172988 0.48352006
-0.15422495 -0.0059711686 0.48591134
-0.14512554 -0.0052358746 0.48637033
-0.1349345 -0.0049978532 0.48643869
-0.12747937 -0.0066067902 0.48805493
-0.10252535 -0.0095289899 0.48699999
-0.099118993 -0.0094702905 0.48400003
-0.15029894 0.00083606038 0.48700002
-0.14380571 0.0020296073 0.48658344
-0.1351686 0.002164141 0.4876757
-0.12852798 0.00083949394 0.48900005
-0.11442979 -0.11106654 0.49899998
-0.10504662 -0.11106656 0.49899989
-0.099335104 -0.11106656 0.49900001
-0.16126493 -0.1020295 0.49875006
-0.15600252 -0.10123783 0.4988749
-0.14502716 -0.10044614 0.49899989
-0.13394922 -0.10137753 0.49885291
-0.12403456 -0.10337547 0.49837187
-0.11475679 -0.10483003 0.49682391
-0.10483877 -0.1049028 0.49659714
-0.0982733 -0.1038262 0.49738634
-0.16195941 -0.094454944 0.49521232
-0.15511653 -0.094911672 0.4968743
-0.14497882 -0.094749726 0.49716944
-0.13484584 -0.094901539 0.49681029
-0.1250641 -0.094940878 0.49611977
-0.11520707 -0.09491808 0.49487749
-0.10505239 -0.094905086 0.49472487
-0.097827546 -0.094992809 0.49486214
-0.16169046 -0.085216887 0.49184778
-0.15511265 -0.085107051 0.49276754
-0.14497682 -0.08509095 0.49289715
-0.13501182 -0.085041523 0.49275562
-0.12501606 -0.085074857 0.49264237
-0.11486129 -0.085187703 0.49230024
-0.10507449 -0.085031308 0.49239263
-0.097586066 -0.085220389 0.4924801
-0.16083936 -0.079381108 0.49000001
-0.15415871 -0.077592187 0.49030536
-0.14488897 -0.077014938 0.49025041
-0.13490996 -0.078242585 0.49039963
-0.12515859 -0.078241415 0.49022919
-0.11404457 -0.076752216 0.49009115
-0.1049462 -0.075107671 0.49091095
-0.096545525 -0.07503628 0.49209732
-0.11116414 -0.065342218 0.48999983
-0.10501541 -0.06505309 0.49159735
-0.097547673 -0.064832434 0.49351707
-0.10389581 -0.057450611 0.49091548
-0.097327285 -0.055249907 0.49297398
-0.12117928 -0.010791025 0.49000001
-0.11529677 -0.010434793 0.49136001
-0.10810724 -0.010537753 0.49066666
-0.12338365 -0.004231045 0.49169952
-0.11504658 -0.0048371251 0.49432462
-0.10601296 -0.004982797 0.49275246
-0.12451825 0.0021416894 0.49091658
-0.11487965 0.0020443813 0.4932425
-0.10731319 0.00084876438 0.49439996
-0.12171668 -0.13037561 0.509
-0.11373613 -0.1321229 0.50866681
-0.10465566 -0.13346097 0.50853825
-0.099180073 -0.1344558 0.50866669
-0.16185459 -0.12345415 0.50631583
-0.15509146 -0.12378167 0.50757283
-0.14511092 -0.12376416 0.50750005
-0.13515297 -0.12376418 0.50750023
-0.12477318 -0.12409937 0.50697172
-0.11500785 -0.12505352 0.50600803
-0.10490099 -0.12501927 0.50466681
-0.098913655 -0.12526712 0.50518197
-0.16174528 -0.11527672 0.50295103
-0.15498339 -0.11519573 0.50437772
-0.14497334 -0.11515586 0.50436378
-0.13511458 -0.11498923 0.503914
-0.12518018 -0.11485948 0.50272834
-0.11500965 -0.1156003 0.50109243
-0.10495571 -0.11607424 0.50098157
-0.098471098 -0.11499071 0.50155807
-0.16144465 -0.10691031 0.50057155
-0.15456511 -0.10609083 0.50103444
-0.14491771 -0.10576685 0.50101674
-0.13543886 -0.10613606 0.50078076
-0.12649336 -0.10733005 0.50024003
-0.095656246 -0.10619021 0.50048971
-0.16420709 -0.15189257 0.51700008
-0.14413905 -0.15221258 0.51865244
-0.13487439 -0.15349904 0.51817638
-0.12495726 -0.15349825 0.51812547
-0.11503631 -0.15412854 0.51816028
-0.10511199 -0.15416388 0.51678038
-0.098568782 -0.15409152 0.51762861
-0.1630092 -0.14494947 0.51722968
-0.154972 -0.14460425 0.5180003
-0.14487354 -0.14511479 0.51671988
-0.13484998 -0.1445619 0.51534611
-0.12502286 -0.14473343 0.51520276
-0.11477684 -0.14480883 0.51375437
-0.10486454 -0.14492834 0.51219106
-0.098593861 -0.14648943 0.51264006
-0.16212682 -0.13547729 0.51329511
-0.15492067 -0.13483551 0.51355803
-0.14508627 -0.13499418 0.51313955
-0.13490227 -0.13487135 0.51210296
-0.12513725 -0.13516188 0.51192063
-0.11583906 -0.13642029 0.51074368
-0.10560208 -0.13791221 0.51020938
-0.099440068 -0.13939892 0.51000005
-0.16173075 -0.12893818 0.51014298
-0.15478142 -0.1287964 0.51099998
-0.1445533 -0.12888831 0.51044446
-0.13529848 -0.12896183 0.51000017
-0.12695929 -0.12896182 0.51000017
-0.16284116 -0.17242233 0.52845174
-0.15498079 -0.17333715 0.52797502
-0.14503096 -0.17372042 0.527628
-0.13517553 -0.17426729 0.52817494
-0.12499213 -0.17409758 0.5278573
-0.11482005 -0.17401956 0.52781487
-0.10478716 -0.17389548 0.52743381
-0.098465271 -0.17581734 0.52792847
-0.16265224 -0.16495235 0.52469558
-0.1547206 -0.16462384 0.52393687
-0.14496057 -0.16500764 0.52375656
-0.13483644 -0.16545951 0.52347416
-0.12497474 -0.16522282 0.52328914
-0.11508896 -0.16538997 0.5233593
-0.10494898 -0.16517709 0.52317125
-0.098872334 -0.16454968 0.52345455
-0.16224276 -0.15541846 0.5215556
-0.15502644 -0.15477745 0.52113193
-0.14506748 -0.15698141 0.52064383
-0.1350719 -0.15884437 0.52036375
-0.12531532 -0.158886 0.52050006
-0.11505128 -0.15923555 0.52025014
-0.10479096 -0.15915902 0.52000016
-0.098413944 -0.159159 0.52000004
-0.16175887 -0.14936861 0.52000004
-0.15665725 -0.14936863 0.52000004
-0.15136458 -0.20159595 0.53900003
-0.14519525 -0.20159598 0.5389998
-0.13505989 -0.2015959 0.5389998
-0.12933122 -0.20159592 0.53900003
-0.15385047 -0.19488479 0.53629982
-0.14489059 -0.19481826 0.53608823
-0.13509546 -0.1949212 0.53665739
-0.12553041 -0.19469145 0.53747922
-0.11501772 -0.19403403 0.53769261
-0.10543594 -0.1937308 0.53766131
-0.098881237 -0.19358353 0.53716677
-0.16458423 -0.18081914 0.53400004
-0.1548394 -0.18468714 0.53203738
-0.14500195 -0.18466486 0.53215021
-0.134914 -0.18496041 0.53303432
-0.12502739 -0.1853157 0.53415537
-0.11497657 -0.18531576 0.53394681
-0.10496929 -0.18515004 0.53345644
-0.098544307 -0.18534249 0.53360009
-0.16425543 -0.17756584 0.53247052
-0.15495813 -0.1783336 0.53018177
-0.14493738 -0.17870629 0.52999997
-0.13468365 -0.17890298 0.53058338
-0.12480688 -0.17904347 0.53100008
-0.11482195 -0.17904347 0.53100008
-0.10465831 -0.17873691 0.53009087
-0.098075368 -0.17633218 0.53200001
-0.16225728 -0.20335531 0.5464285
-0.15601102 -0.20312877 0.54203451
-0.14502312 -0.20373809 0.54000002
-0.13486899 -0.20373808 0.54000002
-0.12437507 -0.20243587 0.54088706
-0.11503336 -0.20280738 0.54223621
-0.10478195 -0.20279101 0.54302931
-0.099306725 -0.20283532 0.54350007
-0.16510653 -0.19670069 0.54681826
-0.1598848 -0.19990347 0.54400003
-0.12300459 -0.19896771 0.54025
-0.11477282 -0.19924393 0.54100007
-0.10481026 -0.19800048 0.54083866
-0.099215366 -0.19953601 0.54300004
-0.17024539 -0.1862011 0.54300004
-0.16641527 -0.18685441 0.54179996
-0.1712987 -0.21052937 0.55800003
-0.17065986 -0.2051734 0.55470592
-0.16729181 -0.20517798 0.55251426
-0.17035937 -0.19922832 0.55200005
-0.16836518 -0.19714989 0.55040002
