# .PCD v0.7 - Point Cloud Data file format
VERSION 0.7
FIELDS x y z
SIZE 4 4 4
TYPE F F F
COUNT 1 1 1
WIDTH 1390
HEIGHT 1
VIEWPOINT 0 0 0 1 0 0 0
POINTS 1390
DATA ascii
0.21494605 -0.21459839 0.63363165
0.22477707 -0.214673 0.63336867
0.23488148 -0.21463567 0.63350028
0.24511448 -0.2149784 0.63394749
0.25496924 -0.21537174 0.63414276
0.26498038 -0.21550201 0.63452375
0.27515799 -0.21598044 0.63621569
0.28531995 -0.21663995 0.63524997
0.29432857 -0.21752162 0.63421035
0.30487174 -0.21809453 0.6329999
0.31491309 -0.21811655 0.63287222
0.3249495 -0.21809448 0.63299996
0.3327733 -0.21796493 0.63375014
-0.32384759 -0.20488639 0.63443756
-0.31524029 -0.20361914 0.63472211
-0.3051464 -0.20325524 0.63384223
-0.295118 -0.20319954 0.63315815
-0.2848852 -0.20306769 0.6330002
-0.27464673 -0.20321509 0.6328308
-0.26506895 -0.20351921 0.63309103
-0.25501576 -0.20346558 0.63234317
-0.24493726 -0.20350303 0.63274616
-0.23500404 -0.20367444 0.63356709
-0.2254106 -0.20398934 0.63365662
-0.21513136 -0.20391931 0.63268429
-0.20537928 -0.20346536 0.63344985
-0.19981305 -0.20339336 0.634
-0.10456608 -0.20596008 0.63411111
-0.095346726 -0.20732114 0.63409829
-0.084996097 -0.20821021 0.63425517
-0.074968204 -0.20827046 0.63463992
-0.065051585 -0.20850845 0.63584769
-0.055154704 -0.20885906 0.63789195
-0.045517307 -0.20874999 0.63852942
-0.03525807 -0.20865904 0.639
-0.025590429 -0.20840712 0.63800031
-0.014414005 -0.20888323 0.63603711
-0.0049290326 -0.20884402 0.63533336
0.0049400656 -0.20884402 0.63533336
0.014990924 -0.20886664 0.63521433
0.02484308 -0.20882219 0.63544828
0.03506678 -0.20884402 0.63533324
0.045112003 -0.20886664 0.63521427
0.054975245 -0.20882215 0.63544822
0.064528137 -0.20881963 0.63546157
0.074738726 -0.20852733 0.63700002
0.085154496 -0.20852733 0.63700002
0.094648428 -0.20897731 0.63710004
0.10510921 -0.20937696 0.63800001
0.11501975 -0.20937696 0.63800001
0.12493025 -0.20937696 0.63800001
0.13486499 -0.20941342 0.63811111
0.1449782 -0.20970514 0.639
0.15124728 -0.20970516 0.63900006
-0.20347859 -0.1992435 0.63900006
0.1558542 -0.21084432 0.64120013
0.16499503 -0.21094082 0.64105129
0.17503959 -0.21103625 0.64159459
0.18539058 -0.21154642 0.64169592
0.19509357 -0.21159852 0.64171749
0.20503388 -0.21184786 0.64206415
0.21517164 -0.21204053 0.64312786
0.22515309 -0.21209025 0.64287525
0.23493445 -0.21206564 0.64300025
0.24492259 -0.21206568 0.64300019
0.25530437 -0.21209432 0.64368755
0.26477912 -0.21203157 0.64449984
0.27479059 -0.21203151 0.64449954
0.28482702 -0.21204998 0.64455533
0.29552537 -0.21353963 0.6443423
0.3049441 -0.21406268 0.64428735
0.31493729 -0.2140695 0.64431256
0.32465655 -0.21515264 0.64309078
0.33489901 -0.2154991 0.64277786
0.34092402 -0.21484219 0.64500004
-0.33180967 -0.20215298 0.64400005
-0.32605338 -0.20217282 0.64227247
-0.31535381 -0.20107979 0.64268959
-0.30495089 -0.20095778 0.64206898
-0.29490572 -0.20077077 0.64166683
-0.28493822 -0.20077081 0.64166683
-0.27497077 -0.20077084 0.64166677
-0.2652218 -0.20093758 0.64219987
-0.2550658 -0.20079409 0.64174086
-0.24506833 -0.20077081 0.64166683
-0.23466007 -0.20084375 0.64190006
-0.22452484 -0.20123194 0.642129
-0.21480724 -0.2012834 0.64115399
-0.20767836 -0.20133236 0.64100003
-0.11065304 -0.20312251 0.64300007
-0.10455664 -0.20248419 0.644077
-0.094689317 -0.20343247 0.6449275
-0.085261114 -0.20498878 0.64260012
-0.075164534 -0.20517267 0.64310533
-0.065245837 -0.20547332 0.64352632
-0.055091031 -0.20582947 0.64489996
-0.045081049 -0.20586129 0.64499974
-0.035061795 -0.20586136 0.64499986
-0.024869723 -0.20565103 0.64392847
-0.014985004 -0.2058484 0.64331424
-0.0049898787 -0.20583402 0.64326984
0.0050126943 -0.20620015 0.64441413
0.015031158 -0.20634156 0.64485687
0.024921281 -0.20641465 0.64479393
0.035045803 -0.20675574 0.64449972
0.045057293 -0.20675568 0.64449966
0.05506878 -0.20675577 0.6444999
0.064816423 -0.20679684 0.64436835
0.074828692 -0.2067146 0.64463151
0.084835321 -0.20679682 0.64436811
0.094958544 -0.2070345 0.64434326
0.10499672 -0.20754276 0.64501506
0.11479847 -0.2074891 0.64514267
0.12487691 -0.2077089 0.64582622
0.13483989 -0.20771894 0.64585733
0.14466643 -0.20791025 0.64569259
0.15513346 -0.2080673 0.64693356
0.16375254 -0.20833755 0.64657587
0.17481527 -0.20903428 0.64500016
0.18483454 -0.20903431 0.64500016
0.19500688 -0.20919628 0.64550006
0.20519067 -0.20935829 0.64599997
0.21522546 -0.20935829 0.64599997
0.22526026 -0.20935829 0.64599997
0.23409471 -0.20969486 0.64599997
0.24480169 -0.20988715 0.64599997
0.25325203 -0.20988715 0.64599997
-0.33260331 -0.19896811 0.64753842
-0.32540175 -0.19871706 0.64594281
-0.31515524 -0.19858272 0.64484996
-0.30472556 -0.19846509 0.64391917
-0.29526988 -0.19848117 0.64363647
-0.28497705 -0.19883467 0.64333344
-0.27498367 -0.19883467 0.64333344
-0.26522237 -0.19900973 0.6439001
-0.25501198 -0.19884618 0.64337057
-0.24500363 -0.19883475 0.64333355
-0.23457982 -0.19891697 0.64360011
-0.22471243 -0.19902945 0.64396298
-0.2148468 -0.19886045 0.64321452
-0.20667002 -0.19824111 0.6452502
-0.10401458 -0.19977367 0.64750004
-0.098798707 -0.19992794 0.648
0.23711622 -0.21044584 0.65100002
0.24509972 -0.21044585 0.65100002
0.25472414 -0.21048176 0.65111113
0.26519912 -0.21076909 0.65200001
0.27532715 -0.21076909 0.65200001
0.28492209 -0.21076909 0.65200001
0.29564199 -0.21068612 0.65306669
0.30504486 -0.21088034 0.65400016
0.31466922 -0.21088034 0.65400016
0.32585341 -0.21193515 0.6518603
0.33502841 -0.2122186 0.65178579
0.34264097 -0.21210571 0.6521427
-0.11113574 -0.20062836 0.65200001
-0.10431789 -0.20046632 0.65271437
-0.093679808 -0.20090802 0.65291673
-0.084612757 -0.20181283 0.65113622
-0.075091369 -0.20191613 0.65099972
-0.06499029 -0.20211141 0.65209639
-0.055021018 -0.20210999 0.65363151
-0.045078017 -0.20229816 0.65301901
-0.034941386 -0.20241176 0.65260035
-0.025113707 -0.20237514 0.65270251
-0.014774436 -0.2022981 0.65301907
-0.0050699739 -0.20215367 0.65350014
0.005088849 -0.20240124 0.65430003
0.015255923 -0.20246305 0.65450007
0.024963463 -0.20251696 0.65445489
0.034812041 -0.20294341 0.65401524
0.044961456 -0.20282993 0.65427321
0.055096455 -0.20309529 0.65450031
0.064976849 -0.20310883 0.6548571
0.074789055 -0.2031294 0.6549232
0.085081927 -0.20357813 0.65436876
0.094983205 -0.20353448 0.65450019
0.10474919 -0.20379387 0.65533364
0.11495715 -0.20384553 0.65550041
0.1251395 -0.20384549 0.65550011
0.13478597 -0.20384552 0.65550035
0.14516744 -0.20403114 0.65534413
0.15530592 -0.204483 0.65582567
0.16520087 -0.20533942 0.65500015
0.17490847 -0.20717663 0.65241367
0.18510884 -0.2071431 0.65263182
0.19506811 -0.20727402 0.65277785
0.20516646 -0.20754586 0.65336865
0.21504869 -0.20750326 0.65350032
0.22493704 -0.20746055 0.65363187
0.23508003 -0.20754585 0.65336871
0.24496831 -0.2075031 0.65350002
0.25465116 -0.20755598 0.65366673
0.26520312 -0.20799424 0.65510368
0.27530238 -0.2080861 0.65533328
0.28486508 -0.20812675 0.65530181
0.29468283 -0.20857087 0.65620542
0.30517763 -0.20885578 0.65775025
0.31485718 -0.20885581 0.65775025
0.3238329 -0.20892636 0.6576336
0.33496404 -0.20959422 0.65500009
0.34353212 -0.20959421 0.65500003
-0.33443829 -0.19569892 0.65414304
-0.32510841 -0.19563867 0.65289509
-0.3149586 -0.19551702 0.65305275
-0.30486318 -0.19543473 0.65249985
-0.29507533 -0.19568734 0.65228838
-0.28512153 -0.19586073 0.65214288
-0.27463639 -0.19584726 0.65241176
-0.26514921 -0.19634578 0.65307951
-0.25501996 -0.19601803 0.65298504
-0.24527787 -0.19634542 0.65263164
-0.23515779 -0.19665331 0.65300024
-0.22496073 -0.19660364 0.6528334
-0.2146723 -0.1961066 0.65313625
-0.20811448 -0.19597824 0.65133333
-0.11111902 -0.19726975 0.65407699
-0.10568804 -0.19696185 0.65528405
-0.095594488 -0.19837348 0.65666693
-0.084871843 -0.19940679 0.65499997
-0.074697256 -0.1994068 0.65499997
-0.065719649 -0.19936024 0.65520006
-0.054967362 -0.1991742 0.65600008
-0.043912634 -0.19931731 0.65538472
-0.035069887 -0.19994295 0.65500003
-0.024895292 -0.19994295 0.65500009
-0.017398223 -0.19994295 0.65500003
0.32888752 -0.2101136 0.66000003
0.33482307 -0.21011361 0.66000003
0.34453571 -0.21011361 0.66000003
-0.035337597 -0.20038868 0.66000003
-0.025085334 -0.2003887 0.65999997
-0.014843741 -0.20055737 0.6605556
-0.0051281592 -0.2006923 0.66100001
0.0046059112 -0.20092845 0.66177785
0.014889516 -0.20099595 0.66200012
0.025172848 -0.20099594 0.66200012
0.034914952 -0.20099594 0.66200012
0.044657055 -0.20099594 0.66200012
0.054940384 -0.20099595 0.66200012
0.065223724 -0.20099594 0.66200012
0.075398795 -0.20110431 0.66200012
0.084707923 -0.20153785 0.662
0.094991252 -0.20153785 0.662
0.10591824 -0.2012008 0.6638388
0.11513456 -0.20113216 0.6642499
0.12490974 -0.20113219 0.6642499
0.13468498 -0.20113225 0.66425002
0.14500323 -0.20113221 0.66425002
0.15542075 -0.20125847 0.66466671
0.16589141 -0.20174862 0.66449976
0.17526226 -0.20308027 0.6623227
0.18495026 -0.2032004 0.66214317
0.19467574 -0.20326039 0.66233903
0.20501007 -0.2037484 0.66360593
0.2150456 -0.20372656 0.6638571
0.22466451 -0.20400085 0.66363156
0.23488915 -0.2041156 0.66363156
0.24518624 -0.20420608 0.66336823
0.2549648 -0.20411029 0.66364729
0.26508921 -0.20449799 0.66431582
0.27516887 -0.20446861 0.66449982
0.28501984 -0.20451944 0.66466671
0.29495886 -0.20518948 0.66489816
0.30516848 -0.20545945 0.66627324
0.31513432 -0.20556533 0.66629487
0.32528591 -0.20590347 0.66644776
0.33431736 -0.20715033 0.66421062
0.34479696 -0.20780738 0.66300035
0.35095158 -0.20735045 0.66500002
-0.34127983 -0.19222949 0.66328573
-0.33473361 -0.19228441 0.66214293
-0.32500312 -0.19235192 0.66187507
-0.31493086 -0.19232042 0.6620003
-0.30518872 -0.19232047 0.66200012
-0.29490539 -0.19232053 0.66199994
-0.28453088 -0.19216758 0.6626001
-0.27512306 -0.19209832 0.66311121
-0.26533628 -0.19234438 0.66232616
-0.25506452 -0.19235201 0.66187495
-0.24470209 -0.19268057 0.66181844
-0.23512654 -0.19261318 0.66301572
-0.22523479 -0.19263034 0.66307694
-0.21701957 -0.19282006 0.66236365
-0.10360587 -0.19423798 0.6657756
-0.095498018 -0.19589275 0.66506672
-0.085032828 -0.19729896 0.66263187
-0.075008884 -0.19734536 0.66250008
-0.065000564 -0.19742316 0.66247386
-0.05505335 -0.19764322 0.66349995
-0.045260653 -0.19751091 0.66305572
-0.035192352 -0.19729894 0.66263181
-0.024917817 -0.19739182 0.66236866
-0.014903031 -0.19756617 0.66324085
-0.0051540192 -0.19789217 0.66433328
0.0046246485 -0.1979703 0.66459274
0.014739672 -0.19841725 0.66488671
0.025286926 -0.19863561 0.66499996
0.035073169 -0.19863564 0.6649999
0.044859424 -0.19863561 0.6649999
0.054865487 -0.19866695 0.66487253
0.064864911 -0.19863564 0.66499996
0.074978881 -0.19860502 0.66512507
0.085091785 -0.19863565 0.66500002
0.095145725 -0.19878069 0.66525537
0.10466543 -0.19856271 0.66722572
0.11496686 -0.19844313 0.66800004
0.12479726 -0.19844307 0.66800004
0.13424537 -0.19882587 0.66800016
0.1450042 -0.19898993 0.66800016
0.15545991 -0.19908923 0.66833347
0.16545844 -0.19928773 0.66899991
0.17092794 -0.19928777 0.66900003
-0.34169748 -0.18938635 0.66500002
-0.33462965 -0.18938638 0.66500002
-0.32484341 -0.18938638 0.66500002
-0.31505713 -0.18993071 0.66500002
-0.30527091 -0.18993071 0.66500002
-0.29494092 -0.18993071 0.66500002
-0.28732944 -0.18993072 0.66500002
-0.26449484 -0.18993071 0.66500002
-0.25525227 -0.18993071 0.66500002
-0.24492233 -0.18993071 0.66500002
-0.21610112 -0.18931146 0.66666669
0.17611337 -0.20068258 0.67000002
0.18542546 -0.20068254 0.67000002
0.19528528 -0.20068258 0.67000002
0.20535086 -0.20088226 0.67066658
0.21532583 -0.20098211 0.67099983
0.22567737 -0.20134035 0.67099977
0.23507492 -0.20153141 0.67099977
0.24494943 -0.2015314 0.67099977
0.25528285 -0.20140412 0.67184347
0.26491851 -0.20126396 0.67380017
0.27502403 -0.20140302 0.67426687
0.284789 -0.20147909 0.67478591
0.29470944 -0.20194334 0.67581397
0.30481341 -0.20195337 0.67587495
0.3150793 -0.2019214 0.67600018
0.32470202 -0.2019963 0.67570716
0.33589733 -0.20380993 0.67277253
0.34495169 -0.20446782 0.67345899
0.35346282 -0.20440246 0.67425585
-0.32126036 -0.19026186 0.67000002
-0.31523493 -0.19026186 0.67000002
-0.30537507 -0.19026186 0.67000002
-0.2949675 -0.19026186 0.67000002
-0.28488895 -0.19048271 0.6707778
-0.27506521 -0.19051427 0.6708889
-0.26484025 -0.19026186 0.67000002
-0.25518999 -0.19041961 0.67055559
-0.24493781 -0.19054581 0.671
-0.23455279 -0.19057736 0.67111111
-0.22479075 -0.19067203 0.67144448
-0.21860568 -0.19054583 0.671
-0.10316528 -0.19112568 0.67339128
-0.094073705 -0.19287033 0.67282337
-0.084975958 -0.19325528 0.67281216
-0.075066105 -0.1934322 0.67342824
-0.064928547 -0.19351389 0.67336333
-0.054927249 -0.19389381 0.67358905
-0.04484956 -0.19390972 0.67316651
-0.034907248 -0.19371818 0.6724999
-0.025010619 -0.19371822 0.6724996
-0.015124666 -0.19387819 0.67305523
-0.005225135 -0.19400626 0.67349976
0.0046862001 -0.19400626 0.67349976
0.014756698 -0.19431941 0.67325002
0.024854288 -0.19479163 0.67397058
0.035008885 -0.19477555 0.67425865
0.044891797 -0.19494872 0.67485762
0.054823115 -0.19494878 0.67485738
0.064607747 -0.19523294 0.67463201
0.074737802 -0.19543058 0.67461157
0.084713347 -0.19554217 0.67500031
0.094709814 -0.19567207 0.67544454
0.10471023 -0.19578403 0.67583382
0.11468321 -0.19583191 0.6760003
0.12386376 -0.19627097 0.67530781
0.13503537 -0.19731635 0.67399985
0.1446535 -0.19746682 0.67399985
0.15446648 -0.19753928 0.67408556
0.16459757 -0.19814913 0.67444444
0.17493337 -0.19840251 0.6735999
0.18480769 -0.19849356 0.6737498
0.1947227 -0.19849354 0.67374992
0.20479147 -0.19864099 0.67424989
0.21487121 -0.19878815 0.67474997
0.22480093 -0.19878814 0.67475003
0.23473065 -0.19878811 0.67475009
0.24466041 -0.19878814 0.67475015
0.25407788 -0.1986635 0.67555171
0.26485154 -0.19834578 0.67700005
0.27508658 -0.19854109 0.67766678
0.28519785 -0.19919373 0.67800003
0.29500204 -0.19945082 0.67887497
0.3044928 -0.19948755 0.67899996
0.31448504 -0.19948755 0.67899996
0.32336709 -0.19948755 0.67899996
-0.34400383 -0.18697555 0.67285699
-0.33510062 -0.18711214 0.67249972
-0.3252041 -0.18711212 0.6724999
-0.31530747 -0.18711214 0.67249978
-0.30541083 -0.18711214 0.67249972
-0.29530489 -0.18727943 0.6727581
-0.28521693 -0.18752143 0.67424119
-0.27507204 -0.18765561 0.67426401
-0.26493683 -0.1879698 0.67360014
-0.25510785 -0.18803236 0.67382216
-0.24510238 -0.18817028 0.67406356
-0.23512393 -0.18826148 0.67464429
-0.22519778 -0.18826199 0.67464453
-0.21861191 -0.18694697 0.67557895
-0.10510946 -0.18851224 0.6746363
0.29710287 -0.20012884 0.68500006
0.30494335 -0.20012882 0.685
0.3150239 -0.20012882 0.685
0.32625595 -0.20053571 0.68346155
0.33503649 -0.20101042 0.68166685
0.34563336 -0.20106184 0.68218189
0.35540751 -0.20127484 0.68336362
0.36124063 -0.20109932 0.68450004
-0.10089795 -0.19087501 0.68000001
-0.094572239 -0.19073665 0.68050003
-0.085456997 -0.19059825 0.68099999
-0.075435303 -0.19059826 0.68099999
-0.065413587 -0.19059826 0.68099999
-0.05508009 -0.19106655 0.68099999
-0.045370158 -0.19115575 0.68099999
-0.035348453 -0.19115578 0.68099999
-0.025241055 -0.19096312 0.68214285
-0.015333124 -0.19094504 0.68225014
-0.005293021 -0.19094498 0.68225014
0.0047488231 -0.19101445 0.6825
0.01479261 -0.19101442 0.6825
0.024861198 -0.19120154 0.68316662
0.034930047 -0.19128659 0.68347204
0.04498978 -0.19129425 0.68349993
0.055048287 -0.19129425 0.68349981
0.065210454 -0.19165227 0.68317044
0.075106435 -0.19174398 0.68473065
0.084948592 -0.1917322 0.68503743
0.095067464 -0.19199026 0.68599969
0.10493161 -0.19292046 0.68449998
0.11509251 -0.19339998 0.68500018
0.12553266 -0.1941693 0.68350017
0.13481279 -0.19444253 0.68277794
0.14490743 -0.19450527 0.68300033
0.15495861 -0.19450527 0.68300027
0.16507736 -0.19505067 0.68295252
0.17503078 -0.19494085 0.68257171
0.18508726 -0.19503541 0.68290353
0.19520585 -0.19518569 0.68342888
0.20511377 -0.19541444 0.68383074
0.21490674 -0.19583115 0.68421429
0.22514372 -0.19614793 0.68517625
0.23493688 -0.19619635 0.68499959
0.24472257 -0.19624478 0.68482327
0.25453553 -0.19619636 0.68499976
0.26491791 -0.1964194 0.68577754
0.27518806 -0.19654687 0.68622196
0.28506419 -0.19769795 0.68474996
0.29492182 -0.19800635 0.68455553
0.30477101 -0.19792907 0.68500012
0.3150239 -0.19844663 0.68500018
0.32547876 -0.1985801 0.68450016
0.33511081 -0.19889155 0.68333352
0.34491959 -0.19894901 0.68566674
0.35526037 -0.19902602 0.68700016
0.36200038 -0.19902603 0.68700004
-0.35209095 -0.18259235 0.68463629
-0.34519786 -0.18334255 0.6835894
-0.33499393 -0.18345875 0.68350005
-0.32493541 -0.18345878 0.68350005
-0.31511971 -0.18327397 0.68281245
-0.30548841 -0.18319018 0.68250012
-0.29497167 -0.18324369 0.68270016
-0.28470144 -0.1834587 0.68349999
-0.27447304 -0.18362907 0.68336856
-0.26483873 -0.18399476 0.68300015
-0.25474578 -0.18388292 0.68337327
-0.2448418 -0.18435279 0.68474984
-0.23508881 -0.18467689 0.68595219
-0.22558652 -0.18475811 0.68528849
-0.11011959 -0.18494111 0.68900001
-0.10520969 -0.18625981 0.68554711
-0.095355488 -0.18835549 0.68357152
-0.085086316 -0.18828155 0.68475032
-0.075009413 -0.18828154 0.68475026
-0.06493251 -0.18828151 0.68475008
-0.054855626 -0.18828148 0.68475014
-0.04477872 -0.18828151 0.68475026
-0.035129309 -0.18830106 0.68463647
-0.025665129 -0.18809748 0.68582147
-0.015417402 -0.18806674 0.68600005
-0.0058098091 -0.18826208 0.68599993
0.0047801347 -0.18890327 0.68700016
0.014890141 -0.1889033 0.68700016
0.025000148 -0.18890329 0.68700016
0.03515631 -0.1891477 0.68788886
0.045285985 -0.18917826 0.68799996
0.055410702 -0.18917826 0.68799996
0.064972952 -0.18917826 0.68800002
0.073889278 -0.18899432 0.68863648
0.084782958 -0.18888921 0.68900007
0.094922394 -0.18888921 0.68900007
0.10055542 -0.18888921 0.68900001
0.10577845 -0.19142269 0.6900003
0.11495068 -0.19166546 0.69087505
0.12469167 -0.19155893 0.69237143
0.13491829 -0.1915621 0.69283789
0.14516889 -0.19150062 0.69440001
0.15516977 -0.19153385 0.69423252
0.16480267 -0.19146651 0.69457132
0.1746902 -0.1915006 0.69439995
0.18490912 -0.19150057 0.69439995
0.19490038 -0.19153385 0.6942324
0.20495063 -0.19155607 0.69459993
0.21513954 -0.19193347 0.69491494
0.22449394 -0.19275579 0.69452393
0.23518914 -0.19310047 0.69400018
0.24540216 -0.19366862 0.69400018
0.25504783 -0.1936686 0.69400018
0.26482221 -0.19376156 0.69433337
0.27530259 -0.19394761 0.69499993
0.28565216 -0.19488183 0.69314277
0.29497409 -0.19513139 0.69316649
0.30526158 -0.19541606 0.69382387
0.3149735 -0.19569781 0.69379342
0.32479337 -0.19581148 0.69357157
0.33471307 -0.195739 0.69331145
0.34480426 -0.19602051 0.69389802
0.35484675 -0.19610277 0.69499993
0.363722 -0.19610988 0.69512528
-0.35392722 -0.18038712 0.69100004
-0.34545317 -0.18095273 0.69100004
-0.33528429 -0.18095273 0.69100004
-0.32516697 -0.18098183 0.69111115
-0.31504905 -0.18101093 0.69122231
-0.30477768 -0.18095273 0.69100004
-0.29460886 -0.18095273 0.69100004
-0.28480512 -0.18118551 0.69188899
-0.27466798 -0.18121462 0.69200015
-0.26505014 -0.18121462 0.69200009
-0.25470442 -0.18121555 0.69252396
-0.2446593 -0.18114506 0.69443995
-0.23439753 -0.18099152 0.69490921
-0.22592299 -0.18141986 0.69344997
-0.11081897 -0.18160504 0.69480002
-0.10448612 -0.18280132 0.69432658
-0.094923809 -0.18436557 0.69322217
-0.085076235 -0.18452872 0.69426692
-0.075304501 -0.18502586 0.69410717
-0.064957671 -0.18513964 0.69400012
-0.055032272 -0.18519282 0.69382358
-0.045150749 -0.18534708 0.69477797
-0.03493873 -0.18540637 0.69500017
-0.02471099 -0.18540646 0.69500023
-0.015051465 -0.18540637 0.69499987
-0.0051952447 -0.18562518 0.69479334
0.0048350762 -0.18591104 0.69476229
0.015066634 -0.18601389 0.69514328
0.025320094 -0.1861838 0.69577843
0.035245877 -0.1862819 0.69571227
0.044774029 -0.18625264 0.69603497
0.053978328 -0.18726455 0.6952309
0.06497217 -0.18798745 0.69400018
0.075270742 -0.18819825 0.69477767
0.08495307 -0.18825847 0.69499993
0.094612598 -0.18825845 0.69499993
0.10514625 -0.18862776 0.69445699
0.11525536 -0.18886837 0.6953429
0.12508652 -0.18880016 0.69700027
0.13461389 -0.18877706 0.69707716
0.1445543 -0.18861392 0.69800001
0.15494034 -0.18907104 0.69800001
0.16464154 -0.18907104 0.69800001
0.17491342 -0.18907104 0.69800001
0.1851853 -0.18907104 0.69800001
0.19488652 -0.18907104 0.69800001
0.20458774 -0.18907104 0.69800001
0.21485963 -0.18907104 0.69800001
0.2220252 -0.18934192 0.69900006
-0.3548713 -0.17778935 0.69515407
-0.34520146 -0.17790943 0.69460022
-0.33497968 -0.17790946 0.69460016
-0.32510218 -0.17811245 0.69488662
-0.31533134 -0.17823027 0.69584471
-0.30507126 -0.1782188 0.69580024
-0.29506433 -0.1786021 0.69565821
-0.28498036 -0.17896126 0.69647211
-0.27474213 -0.17896852 0.69649994
-0.2650618 -0.17896847 0.6965
-0.25498095 -0.17897019 0.69656414
-0.24618162 -0.17900731 0.69652939
-0.2334426 -0.17847015 0.69899994
-0.22584999 -0.17863312 0.69558829
-0.11066934 -0.17884366 0.69600004
-0.10691241 -0.17894301 0.69750005
0.22710365 -0.19104345 0.70138454
0.23483495 -0.1909153 0.70200008
0.2454156 -0.19135496 0.70158857
0.25493279 -0.19144912 0.7015
0.26480848 -0.19153933 0.70183349
0.27545998 -0.19173542 0.70284641
0.28499582 -0.19168295 0.70371437
0.29515558 -0.19198698 0.70423239
0.30519691 -0.19208504 0.7051903
0.31517819 -0.19225956 0.7052322
0.32497293 -0.19218853 0.70557112
0.33477846 -0.19209138 0.70491076
0.34490353 -0.19195202 0.70439988
0.35489672 -0.19206116 0.70479983
0.36476347 -0.19225951 0.7052322
0.37179905 -0.1922847 0.7063334
-0.24178872 -0.18044452 0.70000005
-0.23835495 -0.18044452 0.70000005
-0.10157636 -0.18101753 0.70000005
-0.094797373 -0.18118991 0.70066667
-0.084683381 -0.18110059 0.70376927
-0.074783519 -0.18153322 0.70368743
-0.064944834 -0.18158682 0.70390213
-0.054995324 -0.18159159 0.70446634
-0.045504529 -0.18247485 0.70426941
-0.035391178 -0.18262821 0.70400023
-0.025030997 -0.18262821 0.70400023
-0.014670812 -0.18262823 0.70400023
-0.0048861951 -0.18262821 0.70400023
0.0048984205 -0.18262823 0.70400023
0.015258602 -0.18262823 0.70400023
0.025043217 -0.18262823 0.70400023
0.034827836 -0.18262824 0.70400023
0.045485161 -0.18285894 0.70427614
0.055867054 -0.18441819 0.70374459
0.064949371 -0.18470491 0.70360023
0.074628286 -0.18527147 0.70361131
0.084899597 -0.18550225 0.70400023
0.094980091 -0.18544711 0.70417672
0.1048464 -0.18572813 0.70447063
0.11503857 -0.18583968 0.70527756
0.12494621 -0.18599673 0.70587474
0.13478006 -0.18602936 0.70599967
0.1446858 -0.1866096 0.70570463
0.15541244 -0.18751998 0.70420015
0.16414596 -0.18708821 0.70508337
0.17492053 -0.18816058 0.70400029
0.18603991 -0.18730129 0.70600003
0.19496334 -0.18683417 0.70685691
0.20498186 -0.18731561 0.70640367
0.21414372 -0.18747219 0.7061429
0.22464114 -0.18870881 0.70403862
0.23473661 -0.1887698 0.704
0.24509685 -0.18876983 0.70400017
0.25488138 -0.18876983 0.70400006
0.26493016 -0.18895777 0.70470375
0.27446732 -0.18875614 0.70633328
0.28468016 -0.18861519 0.7069999
0.29492301 -0.18888193 0.70800012
0.30418456 -0.18934807 0.70836377
0.31504783 -0.18972912 0.70900005
0.32490194 -0.18972912 0.70900005
0.33507112 -0.18958044 0.70844448
0.34528175 -0.1894615 0.70800006
0.3552486 -0.18952841 0.70825005
0.36489803 -0.18972912 0.70900005
0.37243351 -0.18972914 0.70900005
-0.36269709 -0.17413999 0.7069999
-0.35496232 -0.17452917 0.70582312
-0.34515515 -0.17441238 0.70617622
-0.33505157 -0.17447081 0.70599973
-0.32500973 -0.17455855 0.70594078
-0.3156749 -0.17521569 0.70454544
-0.30459142 -0.17579506 0.70400029
-0.29535174 -0.17540866 0.70490897
-0.28455958 -0.17591873 0.70376915
-0.27534038 -0.17534275 0.70560348
-0.26504189 -0.17686532 0.70400023
-0.25525725 -0.17686535 0.70400023
-0.24442455 -0.17746282 0.70377141
-0.23531969 -0.17732421 0.70435488
-0.22687837 -0.17627911 0.70166659
-0.11130538 -0.17700642 0.70000005
-0.10523614 -0.17739376 0.7046001
-0.094927147 -0.17882748 0.70472729
-0.085286818 -0.17891312 0.70592862
-0.074934252 -0.17886855 0.70615387
-0.065717161 -0.17882386 0.70768416
-0.055350743 -0.17870182 0.70899987
-0.049554218 -0.17870183 0.70900005
0.36564779 -0.19016415 0.71500009
0.37441614 -0.19016416 0.71500009
-0.044399869 -0.18127868 0.71000004
-0.035112329 -0.18127866 0.71000004
-0.025244322 -0.18127866 0.71000004
-0.014795844 -0.18127868 0.71000004
-0.0049278396 -0.18127866 0.71000004
0.0049401675 -0.18127866 0.71000004
0.014808177 -0.18127866 0.71000004
0.024676183 -0.18127868 0.71000004
0.035124663 -0.18127866 0.71000004
0.045268267 -0.18124123 0.71052945
0.054900229 -0.18110238 0.71284622
0.06489756 -0.18097414 0.71360606
0.075168833 -0.18147965 0.71377504
0.084849268 -0.18173489 0.71431696
0.094769366 -0.18178803 0.71409076
0.10417974 -0.18227416 0.71481824
0.11471137 -0.18288444 0.71400005
0.1247456 -0.18304457 0.71462494
0.13474703 -0.18314064 0.71500009
0.14588583 -0.18369229 0.71375012
0.15466391 -0.18424387 0.71249986
0.1659755 -0.18392868 0.71321422
0.17522603 -0.18450758 0.71230763
0.18397449 -0.18432695 0.71287215
0.19495656 -0.18314058 0.71500009
0.20521294 -0.18356632 0.71500009
0.21564858 -0.18433699 0.71390253
0.2247283 -0.18509939 0.71355349
0.23482922 -0.18586534 0.71464694
0.24512708 -0.18627042 0.7154119
0.25503531 -0.1872976 0.71300012
0.2652353 -0.18750191 0.71377784
0.27509415 -0.18746178 0.71362501
0.28476438 -0.18729754 0.71300006
0.29498532 -0.18749464 0.71374995
0.30537587 -0.18792553 0.71400017
0.31493461 -0.18814471 0.71400017
0.32485825 -0.1881447 0.71400023
0.33478186 -0.18872923 0.71399999
0.3447054 -0.18872921 0.71400005
0.35521278 -0.18872921 0.71400005
0.36564776 -0.18840823 0.71500009
0.37441611 -0.18840826 0.71500009
-0.36505079 -0.17143464 0.71500009
-0.35511327 -0.17143469 0.71500009
-0.34517577 -0.17143469 0.71500009
-0.33528963 -0.17146136 0.7151112
-0.32491988 -0.17154129 0.71544433
-0.31479898 -0.17263043 0.71319962
-0.30510277 -0.17267209 0.7128886
-0.29408532 -0.17226788 0.71399975
-0.28532761 -0.17269875 0.71299964
-0.27364275 -0.17240989 0.71384585
-0.26493499 -0.17317721 0.71257102
-0.25493449 -0.17322566 0.71276879
-0.24471162 -0.17353122 0.71403116
-0.23570797 -0.173815 0.71330202
-0.22931218 -0.17571381 0.71100003
-0.10450084 -0.17424481 0.71514601
-0.096090391 -0.17579371 0.7149089
-0.084928162 -0.17703968 0.71400005
-0.075004555 -0.17703968 0.71399999
-0.065150581 -0.17723252 0.71477789
-0.055234611 -0.17728762 0.71500009
-0.044998147 -0.17804599 0.71369749
-0.034931079 -0.17806329 0.71376711
-0.025040254 -0.17821519 0.71371388
-0.014895876 -0.17840436 0.71479964
-0.0049611544 -0.17840436 0.71479976
0.0047021084 -0.17871836 0.71461505
0.014902032 -0.17891464 0.71449983
0.02483258 -0.17891461 0.71449971
0.034914806 -0.17893338 0.71436334
0.04470415 -0.17889006 0.71467626
0.054859489 -0.17888075 0.71483994
0.0648617 -0.17859162 0.71788901
0.07489083 -0.17871255 0.71837509
0.084947556 -0.17886801 0.71899992
0.094940647 -0.17886809 0.71899992
0.10258242 -0.17886806 0.71899998
-0.36505079 -0.1690935 0.71500009
-0.3551133 -0.1690935 0.71500009
0.10802291 -0.18147436 0.72000003
0.11508667 -0.18147433 0.72000015
0.125192 -0.18161435 0.72055554
0.13569787 -0.18137796 0.7224285
0.14472492 -0.18123861 0.72299999
0.15477362 -0.18123862 0.72300005
0.16482231 -0.18123859 0.72299999
0.17487098 -0.18123862 0.72300005
0.18491966 -0.18123861 0.72299999
0.19477439 -0.18127614 0.72284609
0.20481686 -0.18119961 0.72316009
0.21486749 -0.18127611 0.72284627
0.2252471 -0.18117303 0.7232759
0.23499599 -0.18176758 0.72399986
0.24469434 -0.18246089 0.72427297
0.25499362 -0.18407071 0.72328579
0.26505005 -0.18479925 0.72341162
0.2750417 -0.18466502 0.72370583
0.28531501 -0.18466084 0.72327793
0.29525551 -0.18459053 0.72299987
0.30501986 -0.18464997 0.7228235
0.31497577 -0.18471693 0.72349983
0.32503143 -0.18471698 0.72350001
0.33540261 -0.18495841 0.72310537
0.34521124 -0.18514608 0.72240025
0.3552511 -0.18499577 0.72274601
0.36523092 -0.18529521 0.72344464
0.37524727 -0.18560587 0.72418672
0.38248622 -0.18494774 0.72647369
-0.35150656 -0.17074899 0.72200006
-0.34465626 -0.17057158 0.72125006
-0.33471906 -0.17061757 0.72144455
-0.3249439 -0.17074896 0.72200006
-0.3149091 -0.17074896 0.72200006
-0.3048743 -0.17074896 0.72200006
-0.2948395 -0.17074896 0.72200006
-0.2848047 -0.17074896 0.72200006
-0.27476993 -0.17074896 0.72200006
-0.2647351 -0.17074896 0.72200006
-0.25473881 -0.17077523 0.72211123
-0.24500442 -0.17098548 0.72300005
-0.23791122 -0.17098548 0.72300005
-0.110365 -0.17086537 0.72000003
-0.10460684 -0.17136931 0.72400004
-0.093934819 -0.17298156 0.7246381
-0.084846422 -0.17358281 0.72400004
-0.075242534 -0.1737566 0.72368425
-0.065096162 -0.17410141 0.72411752
-0.055083491 -0.17436695 0.72435313
-0.045033835 -0.17435618 0.72517669
-0.034972738 -0.17448074 0.72482383
-0.025184922 -0.17441845 0.72500014
-0.015108435 -0.17441848 0.72500008
-0.0050339373 -0.17450774 0.72537512
0.0052226665 -0.17486793 0.72515005
0.015121023 -0.17500949 0.72500002
0.024952162 -0.17508005 0.72480005
0.035057336 -0.17516689 0.7261526
0.045080572 -0.17533496 0.72584754
0.05402714 -0.17582022 0.72539991
0.064810716 -0.17711799 0.72387505
0.074919894 -0.17723015 0.72433347
0.085063696 -0.1773933 0.72500014
0.095140174 -0.17739332 0.72500014
0.10594636 -0.17787006 0.72393763
0.11494986 -0.17822944 0.72359985
0.12508161 -0.1783337 0.72402209
0.13503587 -0.178423 0.72523546
0.14473143 -0.17840099 0.72550023
0.15481479 -0.17840093 0.72549987
0.1647191 -0.17887931 0.72507995
0.17495957 -0.17897043 0.7249999
0.18503608 -0.17897044 0.72500008
0.19472063 -0.17900984 0.72483999
0.2047908 -0.17893252 0.72515386
0.21486916 -0.17900985 0.7248401
0.22409414 -0.17878865 0.72636849
0.23488061 -0.17877778 0.72822219
0.24109025 -0.17896876 0.72900003
-0.3725864 -0.16660063 0.72528577
-0.3651984 -0.16712981 0.72382385
-0.35505888 -0.16716823 0.72444469
-0.34456447 -0.16704297 0.72435319
-0.33475083 -0.16729218 0.72452962
-0.32510489 -0.16757268 0.72648156
-0.31495589 -0.16773283 0.72648001
-0.30520293 -0.16767737 0.72608709
-0.29488117 -0.16803068 0.72560012
-0.2847963 -0.16803066 0.72560024
-0.2750544 -0.1680757 0.72542882
-0.26499537 -0.16798668 0.72576773
-0.25469601 -0.16813302 0.72604454
-0.24514361 -0.16831341 0.72640526
-0.23796207 -0.16877915 0.72463644
-0.11082486 -0.16802378 0.72300005
-0.10846046 -0.16802378 0.72300005
0.24619554 -0.18100698 0.73000002
0.25510043 -0.18079773 0.73157138
0.26546419 -0.18161526 0.73283988
0.27574894 -0.18199877 0.73400003
0.28515437 -0.18187481 0.73349994
0.29526508 -0.18146259 0.7330969
0.30526751 -0.18146403 0.73428118
0.31508768 -0.18158755 0.73478115
0.32540718 -0.18191612 0.73366654
0.33560479 -0.18167908 0.73346144
0.34516063 -0.18138899 0.73377162
0.35524911 -0.18129408 0.73381835
0.36491036 -0.1812707 0.73350012
0.37477803 -0.18140185 0.73403132
0.38421223 -0.18194515 0.73422724
-0.10382602 -0.17071709 0.73199999
-0.094959773 -0.17092116 0.73287499
-0.084906727 -0.1711835 0.73400009
-0.073886842 -0.17151123 0.73400015
-0.06510368 -0.17178437 0.73400015
-0.054902099 -0.17178437 0.73400015
-0.044700522 -0.17178437 0.73400015
-0.035099041 -0.17178437 0.73400015
-0.024897469 -0.17178434 0.73400015
-0.01445132 -0.17171948 0.73417658
-0.0051013543 -0.17141671 0.73499995
0.0051141181 -0.17141674 0.73500007
0.015329592 -0.17141676 0.73499995
0.024978092 -0.17164995 0.73600006
0.034605738 -0.17164995 0.73600006
0.044835109 -0.17164995 0.73600006
0.056140397 -0.17295466 0.73348826
0.065002479 -0.17350636 0.73369628
0.075032368 -0.17363149 0.73473334
0.085102558 -0.17410436 0.73456377
0.095158078 -0.17425378 0.73431271
0.10502892 -0.17411628 0.7341764
0.11521289 -0.17424454 0.73382354
0.12522078 -0.17431404 0.73456264
0.13490824 -0.17441769 0.73500031
0.14512374 -0.1744177 0.73499995
0.15549874 -0.17459631 0.7357502
0.16530341 -0.1750434 0.73566705
0.17479005 -0.17515437 0.73557138
0.18474573 -0.17640197 0.73299986
0.19516987 -0.17704111 0.73337489
0.2049038 -0.17716181 0.73387504
0.2155578 -0.17587078 0.73560858
0.2250497 -0.17579587 0.73617673
0.23416834 -0.17648742 0.73518187
0.24538969 -0.17810857 0.73323685
0.25520104 -0.17818457 0.73587096
0.26488301 -0.17859581 0.73683345
0.27574894 -0.17959538 0.73400009
0.2851544 -0.17947306 0.7335
0.29528615 -0.17850477 0.73833346
0.305213 -0.17827833 0.73850012
0.31508648 -0.17839903 0.73900014
0.33925366 -0.17900397 0.73900002
0.34529552 -0.179004 0.73900008
0.35540456 -0.17892325 0.73866677
0.36534262 -0.17876174 0.73799998
0.37531549 -0.17891312 0.73862505
0.38094214 -0.17900397 0.73900002
-0.37424088 -0.16374995 0.73299986
-0.36465248 -0.16374993 0.73299986
-0.35426116 -0.16309853 0.7355001
-0.34518841 -0.16389886 0.73366666
-0.33464524 -0.16402298 0.73422211
-0.32478556 -0.16419673 0.73499995
-0.31517097 -0.16419671 0.73499995
-0.3047978 -0.16431665 0.73399991
-0.2949391 -0.16457415 0.73399979
-0.2847375 -0.16457418 0.73399985
-0.2754131 -0.16499011 0.73399997
-0.26501346 -0.16522501 0.73422211
-0.25507995 -0.16540004 0.73499995
-0.24452598 -0.16569106 0.73470008
-0.23961782 -0.16786033 0.73000002
-0.10442174 -0.16807379 0.73620021
-0.096333988 -0.1685413 0.73508012
-0.084906727 -0.16938096 0.73400015
-0.074705154 -0.16938096 0.73400015
-0.065103672 -0.16938096 0.73400015
-0.054902095 -0.16938096 0.73400015
-0.045214888 -0.16946678 0.73400015
-0.035099044 -0.16998182 0.73400009
-0.024897469 -0.16998182 0.73400009
-0.015295987 -0.16998182 0.73400009
0.27656126 -0.180095 0.74100006
0.28383103 -0.18009499 0.74100012
0.32519284 -0.18106347 0.74000001
0.3342678 -0.18106349 0.74000007
0.38664669 -0.18082219 0.74066675
0.39106038 -0.18070158 0.74100006
-0.041491933 -0.17038974 0.74100006
-0.035433777 -0.17038976 0.74100012
-0.025134914 -0.17038976 0.74100012
-0.014836047 -0.17038976 0.74100012
-0.0051429984 -0.17038976 0.74100012
0.0045561385 -0.17059095 0.74187505
0.014868953 -0.1706197 0.74200004
0.025181716 -0.1706197 0.74200004
0.034887847 -0.1706197 0.74200004
0.044593975 -0.1706197 0.74200004
0.054965567 -0.17079854 0.74277782
0.065307394 -0.17084962 0.74300003
0.075078726 -0.17096457 0.74349999
0.085689336 -0.17141174 0.74400002
0.095156141 -0.17161168 0.74366683
0.10539913 -0.1714578 0.74300003
0.11511835 -0.17145781 0.74300003
0.12483756 -0.17145781 0.74300003
0.13455677 -0.17145781 0.74300003
0.14497191 -0.17156041 0.74344456
0.15533006 -0.17142564 0.74494743
0.16498534 -0.17153949 0.74600023
0.17535371 -0.17153944 0.74600023
0.18497272 -0.17266691 0.74300009
0.19509953 -0.17320561 0.74244106
0.20507152 -0.17317405 0.74257141
0.21409304 -0.17241965 0.74415404
0.22536574 -0.17215015 0.74600023
0.23587227 -0.17306158 0.74408519
0.24505076 -0.17355916 0.74451935
0.25431639 -0.17475601 0.74492323
0.26526579 -0.17618835 0.74500006
0.27461284 -0.17749237 0.74384987
0.2851446 -0.17742492 0.74444669
0.29478589 -0.17650454 0.74480021
0.30525637 -0.17607008 0.7445001
0.31520841 -0.17618836 0.74500006
0.324918 -0.17769909 0.7433334
0.33478558 -0.17782532 0.74504006
0.34496391 -0.17706516 0.74612516
0.35457477 -0.1772352 0.74530011
0.3651534 -0.17740804 0.74500006
0.37521479 -0.17755692 0.7456252
0.38491961 -0.17816119 0.74460012
0.39279449 -0.1782538 0.74735308
-0.38191095 -0.16131251 0.74280012
-0.37536648 -0.16145001 0.74174982
-0.3651875 -0.16146348 0.74157125
-0.35645181 -0.16122641 0.74239999
-0.34518832 -0.16142264 0.74187869
-0.33515653 -0.16160071 0.74219984
-0.32506078 -0.16161388 0.74249989
-0.31526929 -0.16157287 0.74231231
-0.30516967 -0.16142911 0.74190897
-0.29511794 -0.16160633 0.74222845
-0.28509134 -0.1616677 0.74274981
-0.27536768 -0.16219893 0.74239969
-0.26504937 -0.16219892 0.74239969
-0.25482619 -0.16232736 0.74312192
-0.24623434 -0.16264272 0.74356264
-0.10520185 -0.16543271 0.74600023
-0.094344966 -0.16645782 0.74406654
-0.084893577 -0.1669057 0.74443728
-0.075162284 -0.16691987 0.74449986
-0.065060131 -0.16682296 0.74358833
-0.055036824 -0.16679484 0.74393743
-0.04531775 -0.16683669 0.74412489
-0.035262346 -0.16674106 0.74417651
-0.024943288 -0.16687688 0.74382347
-0.014904488 -0.1669215 0.74449992
-0.0051711001 -0.16707106 0.7451666
0.0045807352 -0.16724874 0.74595815
0.014714774 -0.16758405 0.74574989
0.025317535 -0.16786329 0.74597514
0.035085324 -0.16791357 0.7462002
0.044846397 -0.16791354 0.7462002
0.05487803 -0.16803151 0.74633342
0.064888991 -0.1680046 0.74660009
0.073893704 -0.16864389 0.74499995
0.084859893 -0.16925249 0.74400014
0.095156148 -0.16917665 0.74366683
0.10539914 -0.16902496 0.74300003
0.11459767 -0.16911185 0.74300003
0.12483757 -0.16963318 0.74300003
0.13283174 -0.16850269 0.7469998
0.14497191 -0.16973466 0.7434445
0.15176938 -0.1698615 0.74400002
-0.38314766 -0.15837532 0.74656248
-0.37528157 -0.15831663 0.74699992
-0.36544952 -0.15829013 0.74687499
-0.35574377 -0.15842606 0.74600017
-0.3453041 -0.15890449 0.74688888
-0.3349739 -0.15892813 0.74699998
-0.32520238 -0.15892813 0.74699998
-0.31543088 -0.15892813 0.74699998
-0.30504861 -0.1589281 0.74699998
-0.29501083 -0.15911427 0.74787509
-0.2852762 -0.15914087 0.74800009
-0.27549157 -0.15914086 0.74800009
-0.26509541 -0.15914087 0.74800009
-0.25469923 -0.15914086 0.74800009
-0.24661866 -0.15905575 0.74760008
0.11926878 -0.17000346 0.75000006
0.12478735 -0.17000344 0.75000006
0.13705081 -0.17000346 0.75000006
0.14502208 -0.17000344 0.75000006
0.15503931 -0.17023014 0.75099999
0.16446787 -0.17045678 0.75199997
0.17491961 -0.17045678 0.75199997
0.18537137 -0.17045678 0.75199997
0.19546789 -0.17068349 0.75300002
0.20531791 -0.17068349 0.75300002
0.21516792 -0.17068349 0.75300002
0.22475576 -0.17048511 0.75212502
0.23459576 -0.17048511 0.75212502
0.24480045 -0.17074014 0.75325
0.25645402 -0.17212805 0.75345457
0.26501945 -0.17280154 0.7536667
0.27412575 -0.17333122 0.75516683
0.28459096 -0.1746714 0.75424987
0.29512984 -0.17321092 0.75453842
0.30511883 -0.17284814 0.7520951
0.31489697 -0.17293932 0.75168413
0.32473582 -0.17287686 0.75307703
0.334178 -0.17407168 0.75344461
0.34506509 -0.17438185 0.7530002
0.35566112 -0.17455253 0.75255573
0.36543185 -0.17433605 0.75310558
0.37442327 -0.17448287 0.75373709
0.38435471 -0.17530416 0.75336003
0.3948113 -0.17611027 0.75512505
-0.11255655 -0.1640978 0.75287497
-0.10509714 -0.16288625 0.75399983
-0.095552862 -0.1630778 0.75399983
-0.085370928 -0.1635035 0.75399989
-0.07550782 -0.16350348 0.75399989
-0.06502828 -0.16350347 0.75399983
-0.054557066 -0.1635306 0.75412494
-0.044693757 -0.1635306 0.75412494
-0.034776356 -0.16328667 0.7530002
-0.024926333 -0.16328666 0.7530002
-0.015076309 -0.16328664 0.7530002
-0.0052290899 -0.16342218 0.75362492
0.0046345815 -0.16361192 0.75449997
0.014831471 -0.16414656 0.75499982
0.025005648 -0.16433837 0.7549997
0.035518251 -0.16442002 0.75537497
0.045435369 -0.16517489 0.75600028
0.055324629 -0.16517489 0.75600028
0.065213904 -0.16517489 0.75600028
0.075416557 -0.16628544 0.7538572
0.085012838 -0.1665339 0.75329417
0.095172912 -0.16645688 0.75343752
0.10496837 -0.16636129 0.7530002
0.11481839 -0.16636132 0.75300026
0.12471964 -0.16642956 0.75331259
0.13530944 -0.16596583 0.75400019
0.14493553 -0.16641225 0.7532832
0.15545304 -0.16671611 0.7550869
0.1649887 -0.16717671 0.75618207
0.17461862 -0.16733867 0.75637513
0.18458976 -0.16773763 0.75597322
0.19546789 -0.1688343 0.75300014
0.20531791 -0.16883427 0.75300014
0.21516794 -0.16883428 0.75300014
0.2258438 -0.1678095 0.7557649
0.23513734 -0.16769899 0.75625026
0.24480048 -0.16889034 0.75325012
0.25480047 -0.16913679 0.75453335
0.26515555 -0.16907954 0.7568571
0.27320772 -0.16946888 0.75860006
0.29845247 -0.16990073 0.75500005
0.30519667 -0.16987574 0.75488895
0.31494108 -0.16980429 0.7545715
0.32314292 -0.16990073 0.75500005
-0.38416934 -0.15482451 0.75557172
-0.37485346 -0.15464701 0.7560001
-0.36496425 -0.15464701 0.75600022
-0.3556065 -0.15551616 0.75491506
-0.34505203 -0.15650621 0.7530002
-0.33512595 -0.15674964 0.75364703
-0.32455117 -0.15733127 0.75399989
-0.31468803 -0.15733129 0.75399989
-0.30487475 -0.15735739 0.75412488
-0.29535308 -0.15753992 0.75499994
-0.28547689 -0.15753995 0.75499994
-0.27498344 -0.1575399 0.75499988
-0.26448992 -0.15753995 0.75499994
-0.25461379 -0.15753993 0.75499994
-0.24749732 -0.15733129 0.75400001
-0.11294205 -0.15857695 0.75700003
0.27881303 -0.17205213 0.76070011
0.28515181 -0.17168294 0.76260597
0.29297268 -0.17162448 0.76577777
0.30475 -0.17088452 0.76775008
0.3141717 -0.17066249 0.76445448
0.32531932 -0.17045182 0.76300001
0.33617753 -0.17186826 0.76132017
0.3451823 -0.17169814 0.76257914
0.35491097 -0.17164911 0.76280016
0.3642031 -0.1715395 0.76329428
0.37550363 -0.1715395 0.76329428
0.38474092 -0.17188016 0.76382858
0.39442167 -0.17312208 0.7636317
0.40222314 -0.17365058 0.76333332
-0.11028291 -0.16107179 0.76000005
-0.10427485 -0.16071947 0.76085716
-0.094376102 -0.16103452 0.76099992
-0.084919155 -0.1612837 0.76099992
-0.074964501 -0.16128375 0.76099992
-0.064766034 -0.16120437 0.76153839
-0.055172309 -0.16099982 0.76262486
-0.045519616 -0.16106254 0.76262057
-0.035207398 -0.16114394 0.76233345
-0.025601842 -0.1615106 0.76077795
-0.015216457 -0.16169393 0.76000017
-0.0050036688 -0.16110757 0.7624616
0.004688093 -0.16112493 0.76321858
0.014680388 -0.16123708 0.7637502
0.024671027 -0.16123705 0.76375002
0.034404363 -0.16133116 0.76359993
0.044749312 -0.16227175 0.76300031
0.05458929 -0.16233219 0.76300031
0.064570129 -0.16233216 0.76300031
0.074613556 -0.16309024 0.76362509
0.084642589 -0.16317037 0.764
0.095222726 -0.1628046 0.76439285
0.10504261 -0.16203605 0.76416266
0.11537192 -0.16191462 0.76399988
0.12551767 -0.16210994 0.76492512
0.13543019 -0.16199842 0.76439983
0.14512286 -0.16199532 0.76486474
0.15439761 -0.16295679 0.76300025
0.16470589 -0.16327716 0.76450008
0.17522016 -0.16369785 0.76600003
0.18541999 -0.1644876 0.76548594
0.19509041 -0.16564679 0.76392829
0.20490924 -0.165838 0.76382995
0.21504439 -0.16617998 0.76349992
0.22394258 -0.16582076 0.7653001
0.2349118 -0.16511458 0.76722234
0.24502675 -0.16619527 0.76357162
0.25474238 -0.16642509 0.76462501
0.26396236 -0.16723858 0.76490015
0.27529639 -0.16859022 0.7648077
0.28522474 -0.16833141 0.76757151
0.29491514 -0.16858231 0.76699996
0.30475 -0.16837057 0.76775008
0.31411657 -0.16839992 0.76408339
0.32531932 -0.16857807 0.76300013
0.33543253 -0.1689568 0.76471436
0.34520993 -0.16883396 0.76700008
0.35461599 -0.16883396 0.76700008
0.36464918 -0.16883396 0.76700008
0.37468234 -0.16883396 0.76700008
0.38473436 -0.16911697 0.76828575
0.39137706 -0.16927421 0.76900005
-0.39276981 -0.15250364 0.7642501
-0.3860383 -0.15220797 0.76436371
-0.37480676 -0.15168366 0.76599991
-0.36478668 -0.15168366 0.76599991
-0.35357568 -0.15250759 0.76342881
-0.34479755 -0.15291642 0.76280016
-0.33457258 -0.15320531 0.76254553
-0.32483548 -0.15327321 0.76315373
-0.31507447 -0.15315479 0.76463377
-0.30502468 -0.15345749 0.76551765
-0.29499561 -0.15355499 0.76600045
-0.28472379 -0.1536416 0.7657969
-0.27451092 -0.15400723 0.76557177
-0.26470378 -0.15416093 0.76526666
-0.25514239 -0.15426764 0.76499993
-0.24887566 -0.15525796 0.76200002
-0.11111398 -0.15783662 0.7657274
-0.10472946 -0.15795152 0.76511776
-0.094961405 -0.15787987 0.76534498
-0.085421309 -0.15784734 0.76550001
-0.074952468 -0.15785556 0.7658
-0.065263093 -0.15797207 0.76644433
-0.055523768 -0.15763512 0.76749998
-0.045099072 -0.15790154 0.76677775
-0.035688881 -0.15836753 0.76500016
-0.025058266 -0.15885742 0.76453346
-0.015306556 -0.15889278 0.76450032
-0.0056494917 -0.15865248 0.76527274
0.0047196774 -0.15844384 0.76837504
0.0147813 -0.15857273 0.76900005
0.024840618 -0.15857272 0.76900005
0.033642523 -0.15857272 0.76900005
0.099028088 -0.15857272 0.76900005
0.10440818 -0.15872268 0.76790011
0.11507441 -0.15878816 0.76700008
0.12533359 -0.15907282 0.7683751
0.13531691 -0.15899517 0.76800007
0.14541008 -0.15904693 0.76825005
-0.39337921 -0.149959 0.76680005
-0.38482684 -0.14980255 0.76600003
-0.37480676 -0.14980255 0.76600003
-0.36478668 -0.14980255 0.76600003
-0.35476661 -0.14980255 0.76600003
-0.3451966 -0.14999808 0.76700008
-0.33516341 -0.14999808 0.76700008
-0.32763857 -0.1499981 0.76700002
0.39692217 -0.17138532 0.77000004
0.40419766 -0.17153366 0.77066666
0.41175163 -0.17020006 0.77900004
0.03872247 -0.16066988 0.77000004
0.045017719 -0.16066988 0.77000004
0.055090118 -0.16066988 0.77000004
0.065162517 -0.16066988 0.77000004
0.075297505 -0.16143116 0.770625
0.085418098 -0.16150969 0.77099997
0.094242893 -0.16150969 0.77099997
0.1551846 -0.16130021 0.7700001
0.16526586 -0.16129878 0.77100009
0.17538048 -0.16129588 0.77300006
0.18549214 -0.16129588 0.77300006
0.19515315 -0.1614449 0.77371436
0.20489316 -0.16160589 0.77400011
0.21484067 -0.16213812 0.77400011
0.22496539 -0.1621381 0.77400011
0.23491672 -0.16232067 0.77426666
0.24521483 -0.1627717 0.77400011
0.25484738 -0.16286182 0.77442861
0.26545942 -0.16403233 0.77399999
0.27500921 -0.16497588 0.77486658
0.28513545 -0.16660401 0.77414292
0.29481027 -0.16706517 0.77628571
0.33954671 -0.16785493 0.77700001
0.34493962 -0.16762994 0.77544129
0.3553212 -0.16784047 0.77400011
0.36544594 -0.16784047 0.77400011
0.37493786 -0.16784047 0.77400005
0.3849279 -0.16805731 0.77499992
0.3956154 -0.16863391 0.77542317
0.40513507 -0.16885112 0.77633345
0.41175163 -0.16828701 0.77900004
-0.39770508 -0.15009987 0.77400005
-0.34391746 -0.15009987 0.77400011
-0.33505836 -0.15009987 0.77400011
-0.32530478 -0.15027227 0.77488899
-0.31529111 -0.15063316 0.77674997
-0.30498585 -0.15056044 0.776375
-0.29468611 -0.15048772 0.77600002
-0.28404176 -0.15062888 0.77600002
-0.27501875 -0.15112296 0.77600002
-0.26546028 -0.15109861 0.77587503
-0.25882405 -0.15092821 0.77500004
-0.11459327 -0.15567482 0.77471423
-0.10526708 -0.15504332 0.77337503
-0.095228963 -0.15516858 0.77400011
-0.085091203 -0.15514351 0.77387506
-0.074964635 -0.15514356 0.77387506
-0.06489832 -0.15526883 0.77450007
-0.054730069 -0.15516858 0.77400011
-0.044620156 -0.15521871 0.77425003
-0.034153305 -0.15560551 0.77400011
-0.024961719 -0.15562972 0.77314299
-0.015476741 -0.15560092 0.77300024
-0.0057240436 -0.15619908 0.77422225
0.0047626602 -0.15671369 0.77537489
0.014915849 -0.15684003 0.7760002
0.025066733 -0.15684003 0.7760002
0.035729092 -0.15716031 0.77535737
0.045290314 -0.15782776 0.77465016
0.055024624 -0.15782595 0.77413541
0.064755648 -0.15773681 0.77420032
0.074908026 -0.15778837 0.77445018
0.085096501 -0.15789512 0.774975
0.094885103 -0.15794246 0.77624989
0.12657557 -0.15747526 0.7760002
0.13502704 -0.15771544 0.77455992
0.14544585 -0.15793219 0.77512503
0.15531382 -0.15860982 0.77535707
0.16402946 -0.15855753 0.77544469
-0.39452237 -0.14781816 0.77342862
-0.38444421 -0.14685807 0.77623045
-0.37510198 -0.14667831 0.776061
-0.36553252 -0.14861636 0.77287501
-0.3554807 -0.14864039 0.77300006
-0.34549052 -0.14833149 0.77370006
-0.3350583 -0.1481991 0.77400011
-0.32530484 -0.1483693 0.77488887
-0.31529111 -0.14872564 0.77675015
-0.30498585 -0.14865384 0.776375
-0.29468611 -0.14858204 0.77600002
-0.28453523 -0.14858206 0.77600002
-0.27501875 -0.14858203 0.77600002
-0.26546028 -0.14855811 0.77587497
-0.25882405 -0.14839056 0.77500004
0.30863428 -0.17000893 0.78400004
0.31474742 -0.17019479 0.78485715
0.32587117 -0.17108807 0.78669238
0.3346681 -0.17089398 0.78475016
0.34045306 -0.17085552 0.78200006
0.10736942 -0.16102403 0.78400004
0.11506107 -0.16102403 0.78399998
0.12211175 -0.16102403 0.7840001
0.17464148 -0.16040789 0.78100008
0.18464996 -0.16022816 0.78012508
0.19504355 -0.16038221 0.78087503
0.20529036 -0.16040789 0.78100008
0.21498744 -0.16049591 0.78142864
0.22473329 -0.16061328 0.78200006
0.23499909 -0.16063894 0.78212506
0.2449964 -0.16112453 0.78137505
0.25534099 -0.16120188 0.78174996
0.26515809 -0.16134179 0.78242856
0.2752021 -0.1617021 0.78479999
0.28499371 -0.16298561 0.78421432
0.29422009 -0.1642005 0.78488898
0.30503008 -0.16656961 0.78448635
0.31418997 -0.1670129 0.78679299
0.3251529 -0.16867319 0.78675008
0.33634108 -0.16757606 0.78568953
0.34485286 -0.16502959 0.7847501
0.35509634 -0.16354518 0.78416348
0.36493957 -0.16367956 0.78377324
0.37468198 -0.16347696 0.78349972
0.3853839 -0.16379398 0.78576005
0.39409885 -0.16457547 0.78575689
0.40516841 -0.16631724 0.78474998
0.41299763 -0.16637018 0.78499991
-0.11455335 -0.15218936 0.78182769
-0.10450163 -0.15192632 0.78237855
-0.094767801 -0.15185797 0.78257924
