# .PCD v0.7 - Point Cloud Data file format
VERSION 0.7
FIELDS x y z rgb
SIZE 4 4 4 4
TYPE F F F U
COUNT 1 1 1 1
WIDTH 1128
HEIGHT 1
VIEWPOINT 0 0 0 1 0 0 0
POINTS 1128
DATA ascii
0.3050833 -0.19902475 0.62733322 8027266
0.3154574 -0.19906977 0.6271112 8093056
0.32525599 -0.19909227 0.62700021 8092801
0.33142498 -0.19889809 0.62800002 8027265
-0.12096918 -0.21017894 0.63100004 8683900
-0.11665184 -0.21072452 0.63407695 9079170
-0.30323869 -0.20090552 0.63378274 9013385
-0.29484338 -0.20159097 0.63488007 9012871
-0.28490809 -0.20286646 0.63263136 8881800
-0.27475795 -0.2028527 0.63275766 8553349
-0.26549181 -0.20165111 0.63551027 8553607
-0.25559703 -0.20134416 0.63452631 8093316
-0.24500217 -0.20131719 0.63255268 8028035
-0.23502162 -0.2014685 0.63224357 7765120
-0.22501908 -0.20141375 0.63131589 7699327
-0.21498324 -0.20137924 0.63108081 7633791
-0.2051902 -0.20141071 0.63092309 7765118
-0.19617139 -0.20098211 0.63307697 7699325
-0.18478131 -0.20079842 0.63399994 7699326
-0.17475063 -0.20058724 0.63333327 7830911
-0.16482416 -0.20048168 0.63299996 7896704
-0.15499131 -0.20048168 0.63299996 7830911
-0.14371063 -0.20116058 0.63159096 7699325
-0.13489386 -0.20156448 0.63220853 7765118
-0.12467532 -0.20378345 0.6335544 7896188
-0.11565129 -0.20569448 0.63643026 8487295
0.056362305 -0.20289427 0.63676459 7764862
0.06502109 -0.20483245 0.63366652 7764863
0.074455686 -0.20204836 0.63277578 7633789
0.084793076 -0.20073165 0.63182145 7764861
0.14519855 -0.20051689 0.63311112 8421506
0.15480883 -0.20073073 0.63433331 8618628
0.16652209 -0.20137143 0.63265622 9078917
0.17511807 -0.20157826 0.63300002 9341319
0.18363471 -0.20110112 0.63285303 9801354
0.19474699 -0.20037611 0.63266665 10129804
0.21882835 -0.20016499 0.63200003 9998478
0.22307901 -0.20027058 0.63233334 9538698
0.25665748 -0.20088135 0.63100004 8355459
0.26491159 -0.20088133 0.63100004 8289924
0.27518493 -0.2008495 0.63090003 8224129
0.28509444 -0.20056298 0.63000005 8027520
0.29282039 -0.20056298 0.63000005 7896191
-0.31302264 -0.19803214 0.63300014 8881800
-0.30490214 -0.19895996 0.6353572 8816264
-0.29638728 -0.19932771 0.63859999 8750472
-0.27087128 -0.19924352 0.63900006 8553092
-0.26512462 -0.19924353 0.639 8290950
-0.25471705 -0.19927132 0.6376251 8093059
-0.2446153 -0.19913571 0.6349166 8027779
-0.23508705 -0.19905888 0.6341725 7765120
-0.2239393 -0.19833359 0.63522232 7765118
-0.21481733 -0.19789693 0.63610548 7830912
-0.2047703 -0.19775371 0.63613808 7699584
-0.19501917 -0.19802898 0.63652658 7699325
-0.18486308 -0.19799046 0.63666672 7830911
-0.17509799 -0.19818582 0.6362502 7830911
-0.1649794 -0.19830315 0.63600022 7765119
-0.15509993 -0.19830318 0.63600016 7830911
-0.14526552 -0.19836599 0.63620025 7765118
-0.13520192 -0.19829002 0.63686395 7699325
-0.12664476 -0.19893564 0.63784212 7699325
-0.1181383 -0.19997622 0.63800001 7830142
0.056381341 -0.19934875 0.63850003 7699326
0.064945526 -0.19945395 0.63800019 7830657
0.074677356 -0.19898501 0.6365 7699325
0.084848262 -0.19885279 0.63351732 7699325
0.09576761 -0.1984605 0.63483351 7830398
0.10548455 -0.19708538 0.63513637 7961727
0.11445451 -0.1964905 0.63513035 7961727
0.12500837 -0.19770549 0.63574994 7961727
0.1352223 -0.19784619 0.63594747 8027519
0.14482716 -0.19779749 0.63605571 8290433
0.15550359 -0.19869295 0.63414288 8618883
0.16403103 -0.19890682 0.63458818 9013124
0.17497583 -0.19934934 0.6360001 9472903
0.18632963 -0.19881326 0.63488245 9998474
0.19484621 -0.19835405 0.63575006 10326668
0.20506914 -0.1988152 0.63100034 10326669
0.21517822 -0.19872008 0.63200015 10064013
0.22597778 -0.19742902 0.63521343 9670282
0.23472023 -0.19706224 0.63412482 9341063
0.24520209 -0.19800997 0.63340038 8684421
0.25508064 -0.19804108 0.63350016 8355715
0.26492122 -0.19804107 0.63350016 8289922
0.27484334 -0.19811569 0.63355565 8289922
0.28492057 -0.19799635 0.63356203 8027520
0.29498178 -0.19770975 0.63376009 8027008
0.30506131 -0.19637132 0.63681239 8289668
0.31487718 -0.1963329 0.63637137 8158339
0.32502183 -0.19617444 0.63585728 8158594
0.3334347 -0.19645418 0.63591689 8027265
-0.29117835 -0.20112702 0.64000005 8684678
-0.28489941 -0.20112698 0.6400001 8684678
-0.27600431 -0.20112696 0.63999999 8289922
-0.11280989 -0.20160747 0.64153343 8224124
-0.10502148 -0.20396809 0.64455664 9078915
-0.095682338 -0.20430617 0.6484288 9473413
0.043510269 -0.20005836 0.64500004 7830912
-0.32285944 -0.19514339 0.64671445 8684680
-0.31505051 -0.19548789 0.643507 8684936
-0.30508441 -0.19676282 0.64461017 8618887
-0.29483691 -0.19743948 0.64614099 8618885
-0.28511795 -0.19773871 0.64591742 8553349
-0.27518633 -0.19764166 0.6462335 8356485
-0.26509368 -0.19778468 0.64643663 8093572
-0.25480253 -0.19729373 0.64461094 8027523
-0.2447446 -0.19683497 0.64311135 7830914
-0.23513815 -0.19671561 0.64272237 7765120
-0.22543085 -0.19540346 0.64504558 7764863
-0.21488543 -0.19453399 0.64568418 7830912
-0.20501859 -0.1943948 0.64550024 7765376
-0.19499153 -0.19439489 0.6455 7765118
-0.18496449 -0.19439478 0.64550018 7831168
-0.17479622 -0.19474041 0.64520603 7896704
-0.16489469 -0.19481449 0.64514244 7830911
-0.15482353 -0.19484806 0.6452536 7896447
-0.14472412 -0.19484341 0.64523816 7699839
-0.13491781 -0.19479881 0.64477253 7567995
-0.12476059 -0.19624567 0.64452499 7699581
-0.11531901 -0.19673689 0.64549357 7699324
-0.10560108 -0.19818233 0.6475001 7961467
0.037524607 -0.19643377 0.64900011 7957352
0.045819316 -0.19617018 0.64626676 7633534
0.054971427 -0.1952918 0.64538676 7567998
0.064928934 -0.19524397 0.6444636 7699327
0.074719243 -0.19541609 0.6441493 7699326
0.085114084 -0.19617414 0.64298517 7699325
0.094684094 -0.19616774 0.64300001 7765118
0.10523408 -0.1935396 0.64406556 7896447
0.11525024 -0.19360118 0.64375013 7896191
0.12602653 -0.19438472 0.64551038 7961727
0.13504955 -0.19469601 0.64650017 8093312
0.14532177 -0.19482762 0.64619058 8158847
0.15510316 -0.196629 0.6432631 8487298
0.16501585 -0.1970091 0.64305258 8947333
0.17485929 -0.19731268 0.64295715 9472903
0.18469295 -0.19705236 0.64210933 9932682
0.19499855 -0.19488384 0.64503247 10458509
0.2050539 -0.1960226 0.64391983 10524046
0.21503535 -0.19606526 0.64400017 10458255
0.22414921 -0.19441725 0.64485252 10195597
0.23558745 -0.19354407 0.6439184 9735305
0.24491183 -0.19443853 0.64258927 9210248
0.25502756 -0.19454329 0.64250004 8487300
0.26500797 -0.19454327 0.64249998 8224642
0.27498838 -0.19454323 0.64250004 8027520
0.28496882 -0.1945433 0.64250022 8027265
0.29529622 -0.19427441 0.64304537 8092801
0.3049846 -0.19262347 0.6463685 8158338
0.31523323 -0.19254909 0.64640033 8224131
0.32511002 -0.19225255 0.64568406 8158595
0.33528993 -0.19264287 0.64510971 8093059
0.34145015 -0.19144073 0.648 8158852
-0.093844481 -0.20152229 0.651182 8881793
-0.085515752 -0.20199525 0.65614718 9801864
-0.077202864 -0.20169033 0.65864712 10393745
-0.33060402 -0.1924862 0.65700001 8488071
-0.32494181 -0.1923818 0.65549994 8553607
-0.31475371 -0.19291827 0.65544474 8684680
-0.30491075 -0.19327568 0.65605009 8487301
-0.29492411 -0.19340843 0.65649986 8487300
-0.28526291 -0.19340841 0.65649992 8356226
-0.27498654 -0.19345784 0.65645903 8422021
-0.26517692 -0.193666 0.65555364 8027779
-0.25538978 -0.19315507 0.65382546 7830913
-0.24518745 -0.19282009 0.65269226 7699585
-0.23512746 -0.19285238 0.6529122 7764864
-0.22508508 -0.19159436 0.6549055 7765119
-0.21466535 -0.19144364 0.65528888 7765118
-0.2049301 -0.1913591 0.65500009 7765375
-0.19507276 -0.19132784 0.65512782 7765374
-0.18490617 -0.19138972 0.65487516 7831424
-0.17494185 -0.19135912 0.65500021 7962753
-0.16507865 -0.19132784 0.655128 7962498
-0.15492362 -0.19138969 0.65487522 7699840
-0.14498596 -0.19137776 0.65371066 7699583
-0.13511357 -0.19138443 0.65325016 7568252
-0.12490381 -0.19185598 0.65318376 7634045
-0.11453027 -0.19214241 0.65422654 7567995
-0.10507438 -0.19378033 0.65455675 7699324
-0.095110238 -0.19631767 0.65511405 8027516
-0.086049117 -0.19799678 0.65778589 8553087
-0.078805089 -0.19978145 0.65800005 10460052
0.0072791874 -0.19576944 0.65900022 9144194
0.015838295 -0.19487076 0.65884238 9144451
0.025081577 -0.19341056 0.65747714 7961983
0.03464216 -0.19337109 0.65404218 8222324
0.044062927 -0.19215104 0.65172714 7369848
0.054727327 -0.19131428 0.653 7567741
0.06568937 -0.19103767 0.65428579 7699071
0.075655073 -0.19147393 0.65387779 7764863
0.085105702 -0.19226244 0.6526112 7765119
0.094805188 -0.19245853 0.65327793 7765375
0.10364697 -0.19155969 0.6532163 7765119
0.11578158 -0.19222812 0.65237772 7830911
0.12434193 -0.19194703 0.65343142 7896191
0.13476211 -0.1915125 0.65438449 8027519
0.1450803 -0.19138093 0.65491813 8027518
0.15507071 -0.19290881 0.65332162 8421505
0.16508578 -0.19354893 0.65363169 8881541
0.17497985 -0.19359443 0.65350026 9407366
0.18493117 -0.19338682 0.65279979 9998474
0.19522387 -0.19206207 0.65430439 10458510
0.20521636 -0.19138567 0.65365869 10524303
0.21520849 -0.19099139 0.65205437 10524303
0.22460385 -0.19102573 0.65161306 10327181
0.23477639 -0.191314 0.65286493 10064267
0.24540401 -0.19159026 0.65153319 9603977
0.25486201 -0.19166203 0.65147483 8750214
0.26489109 -0.19159672 0.65124977 8224898
0.27510208 -0.19155402 0.65193874 8158850
0.28513139 -0.19155015 0.65200001 8027264
0.2944262 -0.1915158 0.65214282 8092802
0.30455595 -0.19056572 0.65410012 8027266
0.31466922 -0.19053656 0.65400016 8092802
0.32369739 -0.19064079 0.65357161 8158595
0.33500901 -0.19077978 0.653 8093059
0.34301707 -0.19077976 0.65300006 8158082
-0.23085946 -0.18875653 0.65900004 7830913
-0.22493294 -0.18875657 0.6590001 7830912
-0.21498224 -0.18853374 0.65822226 7699327
-0.20522515 -0.18847008 0.65800005 7830911
-0.19544409 -0.18891078 0.65800005 7765118
-0.18478274 -0.18900873 0.65800005 7896960
-0.17509951 -0.18900873 0.65800005 7962754
-0.16487832 -0.18900873 0.65800005 7962498
-0.1546571 -0.18900873 0.65800005 7765377
-0.14431182 -0.18922798 0.65712494 7634047
-0.13508502 -0.18925928 0.65699989 7568253
-0.12487938 -0.18925932 0.65699989 7633790
-0.11559192 -0.18920711 0.65753847 7502203
-0.10586361 -0.18929599 0.65899998 7502203
0.02934669 -0.18861207 0.65850002 7830911
0.035304777 -0.18830737 0.65725029 7961466
0.045321651 -0.18841267 0.6559332 7564909
0.054995514 -0.18848911 0.65619975 7435899
0.063936494 -0.18883501 0.6565333 7699327
0.072470985 -0.18875654 0.65899998 7633791
0.10690882 -0.18887724 0.65542859 7830656
0.11169478 -0.18905815 0.65581816 7765119
0.12796484 -0.18875651 0.65899998 7830911
0.13173628 -0.18875651 0.65899998 7830911
0.14466688 -0.18875656 0.6590001 7961727
0.15220973 -0.18875651 0.65899998 8224641
0.19746685 -0.18929598 0.65900004 10589837
0.2065801 -0.18863519 0.65693754 10721425
0.21494231 -0.18757418 0.65676039 10786961
0.22396393 -0.18777978 0.6553157 10590096
0.2354404 -0.1893433 0.6560868 10195854
0.24557486 -0.18943612 0.65399987 9604234
0.25493169 -0.18926273 0.65393341 8816006
0.26468146 -0.18905862 0.65346146 8290690
0.27498752 -0.18868323 0.65499997 8158849
0.28516206 -0.1886832 0.65499997 8158336
0.29403615 -0.18883637 0.65500009 8158338
0.30662352 -0.18817064 0.65711558 8158852
0.31486976 -0.18792818 0.65800029 8092802
0.32499149 -0.18842205 0.65685111 8224388
0.33493739 -0.1884611 0.6558724 8158852
0.34373185 -0.18829754 0.65652955 8092803
-0.072596371 -0.20154552 0.66025001 10393232
-0.066800058 -0.20144153 0.66168755 10392974
-0.058894876 -0.20051607 0.66400003 10458512
0.0083820997 -0.2006923 0.66100001 13288121
0.010543741 -0.2006923 0.66100001 9604744
-0.32583514 -0.19110066 0.66390902 8487814
-0.31519371 -0.19098771 0.66300005 8553094
-0.30526143 -0.19121817 0.66379994 8553093
-0.29504031 -0.19127578 0.66399986 8290435
-0.28526878 -0.19127576 0.66399986 8291204
-0.27495441 -0.19127575 0.66399986 8027778
-0.26463607 -0.19087967 0.66262501 7830914
-0.25580356 -0.19082613 0.66150016 7765120
-0.24469958 -0.19066378 0.66000003 7765377
-0.23606612 -0.19066378 0.66000003 7765120
-0.10062832 -0.19174431 0.66000003 7699325
-0.094237834 -0.19169258 0.66134369 7699325
-0.084562838 -0.19311976 0.66264457 7830140
-0.075035319 -0.19497982 0.66358829 8421762
-0.065202482 -0.19516799 0.66463286 9210763
-0.055384658 -0.19482139 0.66639763 9539212
-0.045696106 -0.19436376 0.66694653 9275009
-0.034321584 -0.19342802 0.6670801 8816257
-0.025617035 -0.19236359 0.66683346 8882052
-0.019352918 -0.19159396 0.66700006 8816259
-0.0039720288 -0.1918225 0.6655333 8553347
0.0042176549 -0.19314434 0.66110522 8750467
0.014228994 -0.19269207 0.66007137 8356225
0.077437297 -0.19066377 0.66000003 7699584
0.085058019 -0.19080824 0.66049993 7764864
0.095388159 -0.19095266 0.66100001 7765120
0.10295391 -0.19095266 0.66100001 7764864
0.11628798 -0.19066377 0.66000003 7830911
0.12276307 -0.19066377 0.66000003 7830911
0.1367925 -0.19066377 0.66000003 8027520
0.15735723 -0.19127646 0.66025001 8487299
0.1651011 -0.19149378 0.66100013 8881540
0.17536891 -0.19149381 0.66100013 9407365
0.18511581 -0.19098216 0.66237044 9932681
0.19237053 -0.19120404 0.65999997 10458254
0.20441455 -0.19097 0.66233343 10655631
0.2425527 -0.19120404 0.66000003 9932684
-0.32438907 -0.18834655 0.66568583 8356486
-0.3149429 -0.18831633 0.66716307 8487558
-0.30499366 -0.18860744 0.66786963 8356229
-0.29530138 -0.1887331 0.66792858 8290692
-0.28523895 -0.18907322 0.66775012 8159620
-0.27526784 -0.18908872 0.66764879 7896450
-0.26485756 -0.18862829 0.66634274 7765121
-0.25476009 -0.18851352 0.66415393 7896192
-0.24483879 -0.18823689 0.66312528 7765120
-0.23464395 -0.18756296 0.66444021 7830657
-0.22503629 -0.18658313 0.66636819 7830912
-0.21479633 -0.18639275 0.66600001 7699582
-0.20490962 -0.18644665 0.66594541 7765118
-0.19503552 -0.18671075 0.66518998 7830655
-0.18523294 -0.18669762 0.66514248 7896704
-0.17510681 -0.18670191 0.66549963 7962497
-0.16483237 -0.18696071 0.66572696 7896705
-0.15479097 -0.1868982 0.66585678 7765632
-0.14486982 -0.18702593 0.66461819 7699838
-0.13499525 -0.18706204 0.66449982 7699582
-0.12521635 -0.18706205 0.66449994 7567998
-0.1149528 -0.18716045 0.66484994 7567998
-0.10468251 -0.18760452 0.66594619 7502459
-0.095959067 -0.18841708 0.66495347 7568252
-0.08469066 -0.18864366 0.66622227 7568252
-0.075012051 -0.18895835 0.66733336 7699325
-0.06516958 -0.1888954 0.66711104 7764862
-0.056245934 -0.18942051 0.66800016 8027005
-0.046211541 -0.18997788 0.66900003 8221811
-0.032291666 -0.18631263 0.66842872 8224897
-0.024198325 -0.18638521 0.66829985 8356483
-0.019392811 -0.18596816 0.66837513 8356996
-0.0046375724 -0.18804367 0.66796869 8422275
0.0049413769 -0.18643415 0.66566658 8291203
0.015089775 -0.18575366 0.6626808 8094082
0.02507185 -0.18484564 0.66290623 7896705
0.035161264 -0.18372193 0.6647163 7830913
0.044784065 -0.18433224 0.66310024 7301736
0.055062823 -0.18460789 0.66350007 6844275
0.065085679 -0.18542686 0.6646772 7633792
0.074882679 -0.18656865 0.66519368 7633791
0.085144527 -0.18805583 0.66389304 7699328
0.095225744 -0.188666 0.6643998 7765120
0.10440686 -0.18854553 0.66521627 7764864
0.11517365 -0.1884107 0.66438472 7765119
0.12421694 -0.1881419 0.66364306 7765118
0.13562797 -0.18815009 0.66346163 7896190
0.14489664 -0.18775323 0.66500008 7961727
0.15529418 -0.18806441 0.66391438 8355969
0.16488014 -0.18858613 0.66387242 8815747
0.17508097 -0.1885151 0.66419172 9341574
0.18529804 -0.18846238 0.66463912 9998474
0.19451775 -0.18837157 0.66409779 10524046
0.20563653 -0.18787985 0.66483718 10786960
0.21483056 -0.18486449 0.66440016 11181461
0.22402738 -0.18424386 0.66384006 11050390
0.2348575 -0.18691982 0.66493106 10393232
0.24480255 -0.1875989 0.6647234 9604234
0.25488421 -0.18707184 0.66484195 8947079
0.2649889 -0.18678021 0.66350007 8487299
0.27514222 -0.18654761 0.66236866 8290178
0.28517339 -0.1864989 0.66250008 8224129
0.29505673 -0.18660906 0.66241074 8158592
0.3042106 -0.18660548 0.66266698 8158851
0.31548226 -0.18440711 0.66635299 8093058
0.32547939 -0.18471952 0.6660468 8158852
0.33521402 -0.18448152 0.66536313 8224388
0.34519663 -0.18451962 0.66514242 8224644
0.35151163 -0.18387923 0.66646165 8224644
0.019335467 -0.17931265 0.66600001 8291975
0.025324946 -0.17931265 0.66599995 8028549
0.034139134 -0.17985114 0.6680001 7765377
-0.3372404 -0.19048418 0.67299998 8422023
-0.050114993 -0.19135876 0.67000002 9209988
-0.043322667 -0.19135877 0.67000002 9012870
-0.038611859 -0.19135879 0.67000002 8749697
-0.34036455 -0.18517821 0.67750007 8552840
-0.33493361 -0.18591763 0.67617685 8487560
-0.32545617 -0.18520723 0.67519993 8356229
-0.31543785 -0.18489774 0.67541176 8290692
-0.30499405 -0.18588045 0.67399985 8356485
-0.29473096 -0.18622532 0.67399985 8159106
-0.28480697 -0.18623935 0.67438453 7962243
-0.27495244 -0.18532306 0.67601562 7896450
-0.26493093 -0.18499593 0.67482185 7830914
-0.25518507 -0.18473075 0.67385691 7896449
-0.24517348 -0.18480042 0.67284185 7830655
-0.23511285 -0.18361776 0.67499995 7830912
-0.22482015 -0.18268734 0.67650008 7830913
-0.21486467 -0.18268734 0.67650008 7896446
-0.20490919 -0.18268736 0.67650008 7962238
-0.19484194 -0.18258139 0.67611134 7896704
-0.18486106 -0.18255107 0.67600036 8028033
-0.17491291 -0.18255116 0.6760003 7962497
-0.16496484 -0.18255109 0.6760003 7831168
-0.15487832 -0.18238728 0.67538905 7831424
-0.14474919 -0.18260172 0.67414349 7765375
-0.13488458 -0.18267816 0.67442888 7633790
-0.12498562 -0.1828326 0.67500049 7567997
-0.11507977 -0.18300085 0.67561936 7568253
-0.1051136 -0.18337463 0.67643106 7633788
-0.094483532 -0.18528755 0.67388892 7633788
-0.084977314 -0.18483412 0.67425925 7568252
-0.074965715 -0.18461378 0.67344451 7634045
-0.064890526 -0.18431136 0.67281902 7699583
-0.054871116 -0.18446191 0.67252022 7764862
-0.044827882 -0.18485746 0.6721015 8024943
-0.036280841 -0.18448116 0.67103785 8159362
-0.027034163 -0.18251921 0.67023075 8290690
-0.011228221 -0.1837575 0.67028576 8882568
-0.0052804635 -0.18330996 0.67039967 8750983
0.004225478 -0.18195106 0.67049986 8488582
0.013973911 -0.18148649 0.67000002 8291461
0.025059508 -0.18022928 0.6735 8160134
0.039346654 -0.18009549 0.67300004 7567998
0.045572545 -0.18134008 0.67149991 7369330
0.055100396 -0.18152523 0.67235106 6580331
0.0652702 -0.18162423 0.67390263 7633791
0.075285211 -0.1826065 0.67481995 7633791
0.085045442 -0.18400633 0.67322212 7765121
0.095035635 -0.18506679 0.67488182 7764863
0.10491788 -0.18500827 0.67524278 7765120
0.11473455 -0.18509911 0.674797 7764862
0.12493505 -0.18506509 0.67508596 7765118
0.13536592 -0.18498954 0.67480975 7764861
0.14508739 -0.18522133 0.67389083 7961727
0.15501921 -0.18520018 0.67355561 8290177
0.16510862 -0.1853984 0.67427796 8750212
0.17517547 -0.18555091 0.67483366 9210246
0.18515117 -0.18559635 0.67500031 9866888
0.19459385 -0.18565159 0.67319995 10392717
0.2054902 -0.18590492 0.67556018 10918289
0.21451747 -0.18289582 0.67464286 11378581
0.2262515 -0.18234669 0.67525017 11444633
0.23484008 -0.18344149 0.67463648 10853267
0.24558447 -0.18558995 0.67462069 9538699
0.25514004 -0.18319899 0.67526507 9012870
0.26542065 -0.18279792 0.67450011 8618628
0.27538654 -0.1828427 0.67299986 8421507
0.28519583 -0.18278284 0.67277765 8224129
0.29497612 -0.18270814 0.6724999 8158336
0.30487272 -0.18270813 0.67249984 8224129
0.31466451 -0.18182254 0.67407674 8158849
0.32516497 -0.18124729 0.67524987 8289922
0.33489338 -0.18113512 0.67483348 8290179
0.34465501 -0.18104537 0.67450023 8290181
0.35346657 -0.18099469 0.67500007 8158596
-0.23397994 -0.1794778 0.67899996 7831168
-0.22620814 -0.1794778 0.67899996 7962497
-0.061335582 -0.17892195 0.67900002 7765631
-0.053700749 -0.17761852 0.67721432 7436411
-0.045729253 -0.17703412 0.67548972 7038050
-0.036006846 -0.1784876 0.67248154 8225410
-0.026031224 -0.17940736 0.67042863 8553348
-0.011240186 -0.17956027 0.671 9474445
-0.003672142 -0.17899862 0.6721999 9079947
0.005376915 -0.17756458 0.67335421 8882569
0.01455386 -0.17741317 0.67257166 8488583
0.024939947 -0.17687854 0.67487955 8225926
0.035299778 -0.17746687 0.67267424 7765377
0.043639481 -0.17749698 0.67642868 7699584
0.054996915 -0.17923814 0.67599988 6513766
0.064360656 -0.17911763 0.67680007 7699584
0.073545381 -0.17944002 0.67885715 7633791
0.26943439 -0.17979155 0.67600006 8487299
0.27551377 -0.17979155 0.67600006 8421506
0.28380391 -0.17979155 0.67600006 8224127
0.31781581 -0.17892195 0.67899996 8355461
0.32447731 -0.178922 0.67899996 8289924
0.33446962 -0.178922 0.67899996 8355715
0.34446189 -0.17892197 0.67899996 8289923
0.35445416 -0.178922 0.67899996 8224388
-0.3418639 -0.18091439 0.68360007 8684681
-0.33510295 -0.18128343 0.68372488 8487815
-0.32481161 -0.18146668 0.68441683 8355972
-0.31444004 -0.18252023 0.68416679 8355972
-0.30515054 -0.18332326 0.68300033 8159106
-0.29509941 -0.18332325 0.68300033 8159106
-0.28545144 -0.18322349 0.68262511 7896450
-0.27509543 -0.18170778 0.68490005 7830914
-0.2652539 -0.18129744 0.68377775 7830657
-0.25489572 -0.18101028 0.68251419 8027521
-0.24557653 -0.18161865 0.68099999 8028033
-0.23932803 -0.18196869 0.68000001 7831168
-0.22217397 -0.18071131 0.68366671 7896704
-0.21525604 -0.18053509 0.68300003 8093053
-0.20520489 -0.18053509 0.68300003 8290686
-0.19534475 -0.18071133 0.68366671 7962497
-0.18531212 -0.18074067 0.68377781 8028290
-0.17530775 -0.18079942 0.68400002 7896704
-0.1652419 -0.18079942 0.68400002 7896961
-0.15495245 -0.18053511 0.68300003 7831425
-0.14470874 -0.18030015 0.6821112 7765377
-0.13484688 -0.18053509 0.68300003 7699327
-0.12485501 -0.18062319 0.6833334 7633534
-0.1149126 -0.18079942 0.68400002 7568253
-0.10413501 -0.18100305 0.68400002 7699325
-0.094797403 -0.18225008 0.68211108 7764603
-0.084538676 -0.18097633 0.68255562 7436667
-0.074486271 -0.18097635 0.68255562 7568252
-0.066357836 -0.18162447 0.685 7634045
0.078671992 -0.18141204 0.68000001 7765120
0.085326217 -0.18109207 0.68234372 7765120
0.09512803 -0.18145961 0.68438888 7764863
0.10494757 -0.18232903 0.68588006 7830910
0.11511926 -0.1822384 0.68519998 7765118
0.12521875 -0.18168771 0.68524998 7765118
0.13503151 -0.1815419 0.6845386 7699325
0.14549282 -0.18164414 0.6833719 8027519
0.15523331 -0.18172461 0.68309063 8224640
0.16495751 -0.18174472 0.68316263 8618883
0.17494471 -0.18219431 0.68535709 9144966
0.18416557 -0.18263154 0.6848858 9735303
0.19548957 -0.18365103 0.68316674 10524302
0.20508808 -0.18367067 0.68409103 11115666
0.21516576 -0.18196933 0.68323076 11444630
0.22316951 -0.18127926 0.68354172 11379351
0.23856445 -0.18437709 0.68900007 10919060
0.24557455 -0.18406218 0.68455327 9867660
0.25288022 -0.18151574 0.68452001 9144714
0.26457727 -0.18027078 0.6820001 8684421
0.2749272 -0.1801122 0.68140012 8421762
0.28579167 -0.18011793 0.68100011 8224384
0.29536802 -0.18056391 0.68099999 8158336
0.30439466 -0.1807494 0.6803636 8224386
0.31328037 -0.18085541 0.68000001 8289922
-0.34314135 -0.17665583 0.68750006 8618630
-0.33522007 -0.1783219 0.68739992 8553094
-0.32498461 -0.17856404 0.68833327 8487043
-0.27384287 -0.17917086 0.68850011 7765377
-0.26499319 -0.17889619 0.68744445 7830657
-0.25508755 -0.17865044 0.68650007 7896191
-0.24408755 -0.17868903 0.68478131 7896705
-0.23503749 -0.1775997 0.68626744 7830912
-0.22486229 -0.17730817 0.6860587 7831167
-0.21498349 -0.17714192 0.68464726 7962239
-0.20534293 -0.177219 0.68533337 8159103
-0.19541241 -0.17745417 0.68619967 8093826
-0.18548502 -0.17769805 0.68718505 8028290
-0.17549507 -0.17778145 0.68730158 7962497
-0.16529071 -0.17821325 0.68699962 7962497
-0.15503228 -0.17803971 0.68633318 7896961
-0.14478377 -0.17786066 0.68564427 7765375
-0.13477683 -0.17797099 0.68606657 7699584
-0.12480129 -0.17814337 0.68673319 7633791
-0.11561426 -0.17836425 0.68649995 7568253
-0.10484675 -0.17911969 0.68400002 7634045
-0.093958616 -0.1787212 0.68516666 7633790
-0.084870033 -0.17775257 0.68522221 7568254
-0.076512955 -0.17795308 0.68352389 7567997
-0.063116997 -0.17841795 0.68633348 7699582
-0.054834615 -0.17544815 0.68499994 7633277
-0.044612013 -0.17532898 0.68280011 6250594
0.028246263 -0.17408039 0.68400002 8225669
0.034784991 -0.17565586 0.68493325 7897219
0.046173789 -0.17597789 0.68574405 7699584
0.055120166 -0.17640938 0.68438059 7370361
0.065011606 -0.17664376 0.68484974 7633791
0.074542239 -0.17804329 0.68466651 7699584
0.084379338 -0.17876168 0.68568426 7765377
0.094772227 -0.17901182 0.68788892 7699327
0.10055542 -0.17930099 0.68900001 7830911
0.12590401 -0.17930098 0.68900007 7765118
0.13548015 -0.17930095 0.68900007 7830398
0.14545393 -0.17909861 0.68822217 8093312
0.15497048 -0.17904076 0.68800002 8027518
0.16442463 -0.1789251 0.68755561 8421506
0.17482831 -0.17921424 0.68866676 8882052
0.18223423 -0.17930099 0.68900007 9341830
0.21733513 -0.17908186 0.68600005 11313302
0.2259002 -0.17928165 0.68533331 10985110
0.24890541 -0.17960395 0.68800002 9144970
0.25631306 -0.17847018 0.68634468 8947592
0.26487976 -0.17775349 0.68549985 8684421
0.27515495 -0.17760013 0.68436164 8356226
0.28525725 -0.17743506 0.68400013 8290434
0.29532316 -0.17743501 0.68400025 8224129
0.30535719 -0.17767511 0.68319255 8158337
0.31479955 -0.17763181 0.68382639 8355461
0.32510448 -0.17713857 0.68499994 8290182
0.33518505 -0.17713857 0.68499994 8289924
0.34510559 -0.17761919 0.68500006 8290435
0.35534623 -0.17769936 0.68500012 8487303
0.36150658 -0.17769933 0.685 8224389
-0.32013196 -0.1806909 0.69000006 8553094
-0.31489444 -0.18092364 0.69088906 8290435
-0.30510494 -0.18087202 0.69433337 8290178
-0.29546148 -0.18106778 0.69300014 8093571
-0.28480029 -0.18082185 0.69050014 7765377
-0.27895123 -0.1806909 0.69000006 7896450
-0.073663749 -0.18025661 0.69050002 7634046
-0.066891856 -0.18025659 0.69050008 7634045
0.10534783 -0.18091536 0.69085723 7830911
0.11501297 -0.18103591 0.69190919 7765119
0.12100968 -0.1806909 0.69000006 7699325
0.18708007 -0.1813214 0.6902501 9867145
0.19506758 -0.18192703 0.69255555 10458509
0.20637961 -0.18273278 0.69717848 10984595
0.2137939 -0.18181309 0.69608814 11378838
0.23693229 -0.18290086 0.694125 10590099
0.24466088 -0.18175299 0.69389755 9670285
0.25030148 -0.18029349 0.69500005 9079177
-0.34323919 -0.17292228 0.69307894 8487299
-0.33553821 -0.17509758 0.69436854 8487300
-0.32474434 -0.17712082 0.69476467 8487300
-0.31513736 -0.17835905 0.6965307 8224641
-0.30496269 -0.17830226 0.69724989 8290178
-0.29469398 -0.17882153 0.69629025 7962242
-0.28475705 -0.17846295 0.69453132 7765377
-0.27534497 -0.17794527 0.69403851 7830914
-0.26525193 -0.17643142 0.69550008 7830913
-0.2552163 -0.17604718 0.69358826 7765120
-0.24479598 -0.17484026 0.69394994 7896449
-0.23496862 -0.17290801 0.69506258 7896704
-0.22478457 -0.17250645 0.69344431 7962497
-0.21514466 -0.17267337 0.69452935 8093825
-0.20475468 -0.17264217 0.69363165 8290690
-0.19461714 -0.17290628 0.69505578 8093826
-0.18469803 -0.17319527 0.6962226 8094083
-0.17467438 -0.17332976 0.69654733 8093826
-0.16585508 -0.17437209 0.69500005 7962497
-0.15517512 -0.17492114 0.69400018 7830911
-0.14530255 -0.17526197 0.69400018 7830911
-0.13479096 -0.17554538 0.69422233 7633791
-0.12471553 -0.17574212 0.69499993 7633791
-0.11377132 -0.17635757 0.69408321 7634045
-0.10479862 -0.17698589 0.69282335 7699838
-0.094914421 -0.17583849 0.69316673 7634045
-0.085047349 -0.17380559 0.69370598 7634045
-0.074357525 -0.1767952 0.69379991 7633788
-0.066098966 -0.17669426 0.69361538 7765118
-0.05639663 -0.17329863 0.69479996 7830911
0.035519008 -0.17346637 0.69499993 8094596
0.044692643 -0.17379917 0.69633341 7830913
0.054759152 -0.17321683 0.69400018 7765120
0.064983308 -0.17324455 0.69411123 7699584
0.075634144 -0.17493917 0.69283634 7699584
0.085117064 -0.17548138 0.69354993 7699584
0.094793603 -0.17592075 0.69573247 7633791
0.1047828 -0.17823163 0.69461119 7765120
0.11352699 -0.17888685 0.69423538 7699583
0.12707794 -0.17834619 0.69540012 7765118
0.13479851 -0.17781283 0.6942001 7896190
0.14497417 -0.1777616 0.69400018 8027519
0.15461978 -0.17776161 0.69400018 8093054
0.16475202 -0.17767626 0.69366676 8355969
0.17516047 -0.17787549 0.69444442 8684675
0.18543294 -0.17833152 0.69496435 9407879
0.19237749 -0.1789587 0.69513333 10327694
0.2088812 -0.17847015 0.69900006 10853523
0.21552794 -0.17811623 0.69555551 11116438
0.22351326 -0.17802711 0.69213802 10788245
0.23882736 -0.17935759 0.69800001 9736333
0.24603933 -0.17854649 0.69727284 9210249
0.25385645 -0.17684472 0.69488668 9013129
0.26575127 -0.17481235 0.69465804 8553092
0.27480024 -0.17356588 0.69543123 8290178
0.28511468 -0.17377755 0.69399995 8159106
0.29478717 -0.1737933 0.69406265 8158593
0.3048206 -0.17401427 0.6949445 8224129
0.31507224 -0.17402793 0.69500011 8224130
0.32498613 -0.17386076 0.69433367 8289924
0.33504498 -0.17377755 0.6940003 8355718
0.34516433 -0.1741157 0.69357163 8355461
0.3549251 -0.17423697 0.69357169 8355460
0.36376494 -0.17394799 0.69427294 8421254
-0.34396964 -0.16915806 0.69600004 8553094
-0.22683141 -0.16793001 0.69800001 8224897
-0.20201135 -0.16874279 0.699 8356483
-0.19972543 -0.16874279 0.69900006 8356483
0.1171762 -0.18065074 0.70080006 7765119
0.12350949 -0.18070228 0.70100003 7765118
0.19847079 -0.18049107 0.70466667 10458767
0.20375009 -0.18123448 0.70242864 10655631
0.23422457 -0.18100992 0.70157146 10590613
-0.3422901 -0.17087445 0.7021333 8487301
-0.33504301 -0.17249647 0.70397836 8421765
-0.32588562 -0.17456926 0.70406669 8224898
-0.31516501 -0.17574045 0.7041114 8159102
-0.30502409 -0.17604478 0.70499998 8159363
-0.29423565 -0.17575389 0.70442116 7962241
-0.28470713 -0.17451224 0.70383942 7962243
-0.27486506 -0.17421526 0.70263821 7896705
-0.26468173 -0.17216642 0.70364982 7830913
-0.25477657 -0.17169514 0.70172507 7830913
-0.24663435 -0.17168301 0.70100003 7896449
-0.23492117 -0.17013024 0.70000005 7896703
-0.2225177 -0.17071353 0.70240003 8159106
-0.21495758 -0.17103623 0.70491666 8290690
-0.2074853 -0.1711024 0.70400006 8356483
-0.19453202 -0.17034627 0.70088887 8159619
-0.18427764 -0.17087045 0.7039091 8159876
-0.17492621 -0.17076837 0.70499998 8093826
-0.1640764 -0.17157885 0.70296979 8094083
-0.15522335 -0.17189695 0.70223284 7896447
-0.1449552 -0.17225149 0.7021156 7830911
-0.13487504 -0.17246936 0.70255589 7633790
-0.12461589 -0.17270628 0.70356381 7567998
-0.11493962 -0.17300832 0.70475006 7634045
-0.10507475 -0.1728927 0.70427805 7634045
-0.095955379 -0.17262532 0.70259398 7634045
-0.084073022 -0.17206815 0.70490003 7568252
-0.075127177 -0.17287958 0.70422226 7633789
-0.065176494 -0.17295708 0.70186073 7830910
-0.057509609 -0.17070323 0.70000005 7830911
0.029154768 -0.17332226 0.70600003 9014413
0.034809493 -0.17185818 0.70369446 8619912
0.044971444 -0.17140381 0.70268583 7765377
0.055081651 -0.17112571 0.70175022 7699584
0.064981133 -0.17111202 0.70190924 7699584
0.07489188 -0.17150845 0.70311433 7765377
0.085152186 -0.17160054 0.70369428 7633791
0.095370926 -0.17225671 0.70445478 7699327
0.10533684 -0.1740893 0.70310551 7699584
0.11530558 -0.175394 0.70422739 7699583
0.12439823 -0.1763154 0.70603055 7765119
0.13516432 -0.17787023 0.70800012 7830911
0.14479974 -0.17761898 0.70700002 7896448
0.15541062 -0.17656381 0.70279992 8093055
0.1657325 -0.17500283 0.70262527 8290177
0.17582399 -0.17535561 0.70392865 8552835
0.18490271 -0.17531867 0.70435303 8816260
0.19351327 -0.17647932 0.70708007 9407880
0.20479125 -0.17895132 0.70190912 10590096
0.21615802 -0.17736776 0.70599985 10919574
0.22540651 -0.17736775 0.70600003 10591123
0.23564014 -0.17689079 0.70561296 9670797
0.24477388 -0.17533177 0.70313853 9013129
0.25507611 -0.17272899 0.70435846 8881800
0.2639308 -0.17218708 0.70221758 8553092
0.27396485 -0.17087343 0.7041539 8159105
0.2853685 -0.17143485 0.70300001 8224386
0.29513925 -0.17143482 0.70300001 8224129
0.30520073 -0.17159742 0.70366687 8289922
0.31512833 -0.17167872 0.70400017 8224129
0.3248091 -0.17162451 0.70377797 8355716
0.33479682 -0.17143485 0.70300001 8355461
0.34514228 -0.17143482 0.70300001 8355461
0.35491303 -0.17143482 0.70300001 8355461
0.36468375 -0.17143485 0.70300001 8552581
0.37100595 -0.17143482 0.70300001 8421254
-0.34281459 -0.16853952 0.70533329 8421508
-0.33844107 -0.16923648 0.70825005 8553094
-0.26511121 -0.16899756 0.70725 7962497
-0.25426519 -0.167686 0.70696437 7962497
-0.24490604 -0.16719952 0.70500004 8093569
-0.23459977 -0.16610782 0.70531833 8356226
-0.22391637 -0.16706382 0.70569217 8356483
-0.21525389 -0.16763407 0.70705771 8422276
-0.20507964 -0.16727291 0.70709109 8291203
-0.19440679 -0.16725461 0.7036171 8159875
-0.18505293 -0.16803712 0.70611626 8159876
-0.17559561 -0.16805962 0.70769989 8094083
-0.16465321 -0.16914356 0.70544446 8094083
-0.15497227 -0.16927677 0.70599997 7896703
-0.14518197 -0.16930339 0.70611113 8027774
-0.13496114 -0.16951655 0.70700002 7634045
-0.12467262 -0.16967639 0.70766664 7568252
-0.11483346 -0.16966638 0.70762503 7634045
-0.10490418 -0.16951655 0.70700002 7633790
-0.095087118 -0.16985352 0.70466667 7502460
-0.087767646 -0.16994983 0.70400006 7568252
-0.06442292 -0.16887534 0.70674998 7830911
-0.057879318 -0.16833672 0.70450002 7765375
0.036152784 -0.16846111 0.70742851 9473933
0.044841658 -0.16850787 0.70762509 7831170
0.054126237 -0.16856036 0.7069999 7699584
0.065033205 -0.16893779 0.7069999 7699584
0.074965388 -0.16917676 0.70800012 7765377
0.084819637 -0.16920331 0.70811117 7633791
0.093620189 -0.1694157 0.70900005 7633791
0.24954697 -0.16999608 0.70900005 9013386
0.25485951 -0.16967638 0.7076667 8750471
0.26452607 -0.16919684 0.70566666 8487043
0.27607018 -0.16897197 0.70450008 8159105
0.28510416 -0.16829954 0.70642823 8158848
0.2949011 -0.1682172 0.70676714 8158592
0.30367833 -0.16853356 0.70629984 8289922
0.3151283 -0.16994983 0.70400006 8289922
0.3248091 -0.16989616 0.70377779 8355716
0.33663541 -0.16935918 0.70540005 8355461
0.34517685 -0.16907342 0.70736337 8224387
0.35501403 -0.16903482 0.70762837 8355715
0.36483958 -0.1690734 0.70736349 8749186
0.37226555 -0.16893803 0.70829409 8421253
0.19863248 -0.18234883 0.71100003 10459023
0.20153697 -0.18128593 0.71139997 10392974
-0.33421123 -0.17119512 0.7144348 8421507
-0.32516021 -0.17279467 0.71340001 8159104
-0.3150045 -0.17410371 0.7115556 8224896
-0.30448946 -0.17338164 0.7147857 7896704
-0.29550171 -0.17263956 0.71330774 7896449
-0.28538388 -0.17118055 0.71395242 8028035
-0.27512547 -0.1709889 0.71071434 7896704
-0.13045998 -0.17002597 0.71400005 7699838
-0.12520631 -0.17002596 0.71400011 7502459
-0.11703393 -0.17002596 0.71400005 7634045
-0.095749505 -0.17065969 0.71385723 7502459
-0.081894599 -0.17095517 0.71300006 7436666
-0.074810348 -0.17074536 0.71212494 7633789
-0.069457814 -0.17047562 0.71100003 7896704
0.029402541 -0.17129822 0.71200001 10066065
0.03114886 -0.17129822 0.71200001 9671054
0.098395996 -0.17081705 0.71000004 7699584
0.10486498 -0.17095073 0.71055567 7765119
0.11487276 -0.17114785 0.711375 7699839
0.12582625 -0.17194451 0.71166658 7699838
0.13489152 -0.17301004 0.71187031 7896704
0.14453951 -0.17328277 0.71375036 7896448
0.15525395 -0.17475042 0.71456742 8027520
0.16200241 -0.17474459 0.71610004 8290177
0.17366923 -0.17587076 0.71400005 8421504
0.19774038 -0.17504722 0.71544462 9013382
0.20497254 -0.17728196 0.71309626 9933195
0.21451837 -0.17503732 0.71461117 9999246
0.22540341 -0.17455792 0.71493751 9802125
0.23448201 -0.17317148 0.71463037 9144970
0.24437384 -0.17134233 0.71271056 9013385
0.25369185 -0.17005999 0.71414292 8881800
0.31491172 -0.17023586 0.71000004 8289922
0.32477969 -0.17023586 0.71000004 8355715
0.33406726 -0.17023586 0.71000004 8158596
-0.35305312 -0.16774718 0.71674997 8487301
-0.34505635 -0.16727909 0.71475005 8487557
-0.33825925 -0.16795331 0.71633339 8487300
-0.28382412 -0.16873464 0.71633339 7831169
-0.27444312 -0.1669752 0.71506113 8159362
-0.26473671 -0.16586202 0.71320003 7962497
-0.2554675 -0.1636136 0.71407557 7962753
-0.24455385 -0.16271779 0.71272504 8290692
-0.23561065 -0.16196874 0.71138096 8553092
-0.22473349 -0.16262983 0.71146345 8684933
-0.21505047 -0.16260053 0.71428847 8685446
-0.20513383 -0.16270474 0.71414268 8554119
-0.19511329 -0.16308479 0.71228909 8422533
-0.18430144 -0.16368574 0.71209091 8291205
-0.17454332 -0.16383086 0.71459109 8159876
-0.16552663 -0.16584733 0.71439981 7962497
-0.155109 -0.16724281 0.71462512 7831167
-0.14537661 -0.16747318 0.71561122 7830910
-0.13598095 -0.16805746 0.71459991 7699581
-0.12520631 -0.16827254 0.71400005 7502459
-0.11371889 -0.1677258 0.71554559 7568253
-0.10503981 -0.16752088 0.71581244 7568252
-0.09786851 -0.16785139 0.71471453 7502459
-0.081938028 -0.16771521 0.71557152 7634045
-0.075072967 -0.1672437 0.71462494 7634045
-0.065246224 -0.16590375 0.71307898 7765375
0.029526427 -0.167918 0.71499997 10591123
0.034802567 -0.16694783 0.71422577 9737103
0.045268994 -0.16660659 0.71437502 7831170
0.055546369 -0.16682075 0.71400017 7699584
0.06502375 -0.1669281 0.71325004 7699584
0.074960403 -0.16697359 0.71344447 7633791
0.084638625 -0.167285 0.71400011 7633791
0.095136411 -0.16783221 0.71393114 7567998
0.1049701 -0.16835816 0.7141515 7699326
0.11499614 -0.16844186 0.71494269 7699582
0.12502804 -0.16863723 0.71533304 7699326
0.1345274 -0.16861753 0.71756017 7764862
0.14196697 -0.16827378 0.71899998 7896190
0.23837095 -0.16886234 0.71900004 8882055
0.24476413 -0.16877496 0.71626306 8947593
0.25631511 -0.16766913 0.71565628 8684678
0.26503795 -0.16729166 0.71483368 8553092
0.27479064 -0.1670752 0.71347022 8290433
0.28479183 -0.16581331 0.71599984 8224384
0.29474321 -0.16581331 0.71599984 8027518
0.30536482 -0.16626053 0.71416652 8290177
0.31507161 -0.16686213 0.71299946 8290179
0.3249813 -0.16686219 0.71299952 8421508
0.3346191 -0.16682971 0.71335977 8290180
0.3452411 -0.16619283 0.71511114 8289923
0.35512564 -0.16616702 0.71500009 8355972
0.3646861 -0.16645022 0.71500009 8683649
0.37441614 -0.16675232 0.71500009 8552837
-0.25217247 -0.15561953 0.71899992 8093826
-0.24571691 -0.15785445 0.71683335 8290947
-0.23415644 -0.1592676 0.71177775 8684678
-0.22556405 -0.15938076 0.71240008 8882312
-0.21860492 -0.15950538 0.71400005 8882308
-0.19595514 -0.15960112 0.7144286 8685447
-0.18292391 -0.15995218 0.71600002 8356998
-0.17882627 -0.15995218 0.71600002 8225669
-0.3330459 -0.17079537 0.72320002 8355971
-0.32443565 -0.17214407 0.72416681 8159104
-0.31508458 -0.17221573 0.723225 8225411
-0.30683333 -0.17150423 0.72363168 7962497
-0.29507571 -0.17054203 0.72112507 7962242
-0.28931358 -0.17027599 0.72000003 8357001
0.14692521 -0.1703351 0.72025001 7896704
0.15483782 -0.17061757 0.72144449 7896704
0.16599813 -0.17214982 0.72211128 8093568
0.17499289 -0.17275646 0.72261554 8421503
0.18510763 -0.17266694 0.72302008 8487298
0.19442217 -0.17263688 0.72357124 8750469
0.20540844 -0.17275365 0.72300005 8947845
0.21517168 -0.17172611 0.72599989 9013640
0.22444318 -0.17170623 0.72370619 9211019
0.23355363 -0.17103158 0.72120011 9013641
-0.35364002 -0.16274436 0.72171414 8356229
-0.34544837 -0.16375068 0.72388905 8356484
-0.33377683 -0.16840416 0.72254539 8421507
-0.32612163 -0.16931395 0.72690922 8356226
-0.31552523 -0.16966757 0.72750008 8159621
-0.30368429 -0.1683706 0.72705889 7896707
-0.29493845 -0.16772452 0.72427475 7831169
-0.28447276 -0.16430677 0.72381836 8028031
-0.27543524 -0.16238056 0.72353673 8028032
-0.26583767 -0.16199794 0.72268754 8028290
-0.25570863 -0.1624904 0.72057152 8028546
-0.19409476 -0.16132019 0.7232632 8685447
-0.18669811 -0.16119069 0.72155553 8553863
-0.17519917 -0.16082506 0.72522223 8225926
-0.16339736 -0.16219695 0.72335142 7831424
-0.15507056 -0.16277279 0.72466666 7765631
-0.14522663 -0.16396527 0.72485733 7634045
-0.13430679 -0.16538849 0.72339988 7634045
-0.12513743 -0.16582277 0.72374982 7502460
-0.11626939 -0.16548945 0.72407711 7633789
-0.10520571 -0.1643367 0.72500008 7633790
-0.095008291 -0.1656013 0.72536373 7502459
-0.084959403 -0.16473371 0.72465938 7568252
-0.075117923 -0.16273136 0.72279084 7699838
-0.066952124 -0.16230357 0.72296435 7765631
0.028117379 -0.166457 0.727 10657687
0.034108929 -0.16405873 0.72461557 9145740
0.045317803 -0.16385999 0.72456259 7896704
0.054973327 -0.16321951 0.72317654 7896960
0.065027505 -0.16334869 0.72282356 7699839
0.075075619 -0.16321954 0.72317654 7634046
0.085313164 -0.16353706 0.72266692 7699584
0.094903447 -0.16377771 0.72257149 7567998
0.10501179 -0.16387959 0.72301632 7633791
0.11506095 -0.16399986 0.72354579 7633791
0.12490256 -0.16406393 0.72435009 7699583
0.13509922 -0.16442005 0.72486442 7764862
0.14518927 -0.16542898 0.72498262 7896189
0.15502755 -0.16772425 0.72390479 7896449
0.16517058 -0.16769154 0.72668773 7830912
0.17485607 -0.16786458 0.7274375 8093311
0.18498014 -0.16787896 0.7275002 8421505
0.19526927 -0.16803068 0.72815627 8487297
0.20482011 -0.16805218 0.72825003 8553090
0.21452217 -0.16784808 0.72861296 8882055
0.2248532 -0.16796096 0.72809684 8816521
0.2347846 -0.16783422 0.72563058 8750727
0.24592085 -0.16606312 0.72490013 8684934
0.25458241 -0.16486424 0.72387052 8553092
0.26576704 -0.16322705 0.72430009 8421507
0.27527046 -0.16276944 0.72586948 8421506
0.28496146 -0.16263543 0.725389 8421506
0.29488686 -0.16254888 0.72500008 8289920
0.30496332 -0.16254888 0.72500014 8355713
0.31503978 -0.16254888 0.72500014 8487300
0.32482675 -0.16261403 0.72482377 8355971
0.33488962 -0.16248368 0.72517663 8421508
0.34497485 -0.16261402 0.72482365 8421509
0.35512358 -0.16244844 0.72455585 8487046
0.36506772 -0.16246338 0.72388017 8421253
0.37501004 -0.16281989 0.7235716 8486790
0.38213614 -0.16191953 0.72550011 8355974
-0.35228354 -0.15809599 0.72360003 8618885
-0.34785149 -0.15864383 0.72719991 8487556
-0.27333292 -0.15837431 0.7276001 8028290
-0.26530409 -0.15848437 0.72565001 8159619
-0.25693801 -0.15789886 0.72000015 8094083
-0.19304347 -0.15787724 0.72517645 8948362
-0.18490016 -0.15738347 0.72540468 8816777
-0.17627992 -0.15818195 0.72673345 8423047
-0.165581 -0.15907581 0.72614282 7897217
-0.15644492 -0.15927579 0.72900003 7765631
-0.080419995 -0.15980893 0.72600001 7765631
-0.075001694 -0.15964384 0.72525001 7765631
-0.069047272 -0.15958881 0.72500002 7831424
0.26910248 -0.1592758 0.72900003 8421506
0.27506253 -0.15927579 0.72900003 8421507
0.28506258 -0.15920296 0.72866672 8421506
0.29492161 -0.15905732 0.7280001 8421507
-0.33124471 -0.17044498 0.73600006 8356483
-0.32478553 -0.17021337 0.73500007 8225411
-0.31697372 -0.17021339 0.73500001 8093829
-0.34407869 -0.16381149 0.73600006 8356227
-0.33583006 -0.16701999 0.73399997 8422021
-0.32478553 -0.16780673 0.73499995 8225155
-0.31395674 -0.16744828 0.7353636 8028035
-0.30519897 -0.16570354 0.73377162 7896962
-0.29440865 -0.16363679 0.73236865 7896961
-0.28515956 -0.16108164 0.73327279 8093312
-0.27917406 -0.16112968 0.73200005 8093313
-0.15149535 -0.16150793 0.73100001 7634045
-0.1442325 -0.16177006 0.73160875 7634046
-0.13490945 -0.1617454 0.73352641 7634045
-0.12506911 -0.16211556 0.73374987 7568253
-0.11554993 -0.16248922 0.73316008 7568253
-0.10516315 -0.16254988 0.73299992 7634045
-0.094999522 -0.16362619 0.73312515 7502459
-0.087458692 -0.16194001 0.73025006 7634045
0.027834628 -0.16352654 0.73199999 10394773
0.035676517 -0.16190076 0.73522872 8357511
0.043921806 -0.16141495 0.73384994 7897217
0.054765213 -0.1611297 0.73199999 7896704
0.064938992 -0.1611297 0.73199999 7896960
0.075112768 -0.1611297 0.73199999 7699582
0.084688082 -0.1611297 0.73199999 7634047
0.094802439 -0.16103186 0.73155552 7567998
0.10489214 -0.16090955 0.73100001 7633791
0.11507024 -0.160934 0.73111111 7567998
0.1253832 -0.1611297 0.73199999 7633790
0.13495852 -0.1611297 0.73199999 7699581
0.14521715 -0.16124126 0.73328567 7961724
0.15471961 -0.16293649 0.73206234 7830654
0.16493556 -0.16318268 0.73364705 7896191
0.17527901 -0.16349922 0.73411763 8027519
0.18519533 -0.16342257 0.73425007 8224384
0.19481872 -0.16343789 0.73431253 8355970
0.20489897 -0.16348429 0.73499978 8553092
0.21520136 -0.16373485 0.73517656 8684935
0.22523607 -0.16372828 0.73562527 8685191
0.23520443 -0.16355158 0.7348333 8488069
0.24418533 -0.16286464 0.73361546 8488069
0.25451633 -0.16125976 0.7337001 8355970
0.26430556 -0.16141327 0.73057145 8421506
0.30635363 -0.16036822 0.73400009 8421506
0.31535506 -0.16036822 0.73400009 8487556
0.32495654 -0.16036822 0.73400009 8356228
0.33515808 -0.16036822 0.73400009 8421508
0.34535962 -0.16036822 0.73400009 8487301
0.35496116 -0.16036822 0.73400009 8487301
0.36493978 -0.16027111 0.7335555 8487045
0.37485293 -0.16014974 0.73300004 8421254
0.38384199 -0.16014974 0.7330001 8355974
-0.35074773 -0.15676314 0.73400003 8487813
-0.3483474 -0.15676314 0.73400003 8422278
-0.29373443 -0.15981707 0.73700005 8094081
-0.28559917 -0.15920995 0.732077 7962240
-0.27449551 -0.15780979 0.73594755 8028290
-0.26842749 -0.15740386 0.73700005 8225156
-0.17315736 -0.15800069 0.73416668 8357255
-0.16483127 -0.15807243 0.73449999 7962754
-0.15452664 -0.15846245 0.73519999 7699838
-0.14517649 -0.15885258 0.73553336 7699838
-0.13648669 -0.15878388 0.73694748 7634045
0.035157334 -0.15891175 0.73777777 8226182
0.045186974 -0.15928638 0.73400009 7831424
0.055114359 -0.15792806 0.73666674 7765375
0.064949758 -0.1579842 0.73648 7699839
0.074710786 -0.15835778 0.73626852 7699582
0.084752657 -0.15827036 0.73583752 7699325
0.094907463 -0.15826505 0.73502409 7567996
0.10505439 -0.15804031 0.73476774 7567998
0.11525514 -0.15814725 0.73447639 7567997
0.12526351 -0.15828727 0.73552525 7633789
0.13498117 -0.15839943 0.73605025 7699325
0.14472617 -0.15812424 0.7375626 7765118
0.15290987 -0.15859416 0.73614299 7764861
0.16510747 -0.15952796 0.73566675 7961727
0.25656375 -0.15879564 0.73628581 8355971
0.26509991 -0.15876116 0.73541176 8355970
0.27492276 -0.15818001 0.73499995 8355970
0.28509441 -0.15815611 0.73488891 8290433
0.2949518 -0.15796478 0.73400003 8421506
0.30515343 -0.1579648 0.73399997 8421506
0.31535503 -0.15796481 0.73400003 8487812
0.32477394 -0.15801705 0.73400009 8421763
0.33515802 -0.1585657 0.73400015 8487300
0.34535959 -0.15856566 0.73400015 8487300
0.35496116 -0.15856569 0.73400015 8487300
0.36493981 -0.15846969 0.73355561 8487300
0.3748529 -0.15834965 0.73299992 8355718
0.38384202 -0.15834966 0.73299992 8290181
-0.35066015 -0.16011694 0.74400002 8224642
-0.34437478 -0.16236483 0.74506909 8356227
-0.33450508 -0.16457626 0.74541199 8290947
-0.32484707 -0.16463253 0.74573356 8093828
-0.31580749 -0.16438518 0.74469221 7896705
-0.30581659 -0.16329046 0.74737495 7962499
-0.2993592 -0.16277157 0.74500006 7896703
-0.13097563 -0.16046761 0.74000001 7568252
-0.12498744 -0.16054894 0.74037504 7634045
-0.1149505 -0.16170369 0.74500006 7568252
-0.10456808 -0.16139987 0.74150002 7699838
-0.095930308 -0.16114594 0.74033332 7634045
0.019828336 -0.16299005 0.74600005 11183516
0.0246897 -0.16245027 0.74352944 10197651
0.041064564 -0.16011694 0.74400002 7963010
0.17599586 -0.16068447 0.74100012 8027519
0.18508311 -0.16068447 0.74100012 8158847
0.19477613 -0.16068447 0.74100012 8355713
0.205075 -0.16068447 0.74100012 8487556
0.21562889 -0.1608742 0.74187505 8553862
0.22559965 -0.16106394 0.74275005 8488069
0.23531315 -0.16106395 0.74275005 8488069
0.24520326 -0.16078085 0.74144453 8488070
0.25138307 -0.16046761 0.74000001 8356485
-0.35066015 -0.15828982 0.74400002 8290692
-0.3478896 -0.15897064 0.74720007 8290434
-0.284206 -0.15813611 0.74042857 7896705
-0.18070312 -0.15301777 0.74800003 9146512
-0.17556654 -0.15439707 0.74437499 8620426
-0.16510732 -0.15643933 0.74388897 8028291
-0.15474947 -0.15641014 0.7437501 7634304
-0.14501555 -0.15641011 0.7437501 7634302
-0.13445005 -0.15698917 0.74464536 7633789
-0.12496276 -0.15779576 0.74457473 7634045
-0.11708844 -0.15856972 0.74533337 7633790
-0.10456807 -0.15897194 0.74149996 7634046
-0.095930308 -0.1587218 0.74033326 7633789
-0.074306101 -0.15725693 0.74200022 7699838
0.019881496 -0.15852855 0.74799997 10329495
0.025643857 -0.15832679 0.74577785 9212303
0.035011835 -0.15783973 0.74475002 8094598
0.045667555 -0.15664519 0.743577 7831424
0.054591399 -0.15444066 0.74600011 7699838
0.064874105 -0.15423363 0.74500012 7634046
0.075366102 -0.15478443 0.74500024 7634045
0.084873423 -0.1546616 0.74412507 7634045
0.094914816 -0.15468785 0.74373525 7568252
0.10539914 -0.15503599 0.74300003 7568254
0.11511836 -0.15503597 0.74300003 7568252
0.1249648 -0.15519248 0.7437501 7699838
0.13491897 -0.15545328 0.74500006 7568252
0.14466436 -0.15545332 0.74500006 7699581
0.15501793 -0.15657873 0.74292862 7699325
0.16502626 -0.15694821 0.74344468 7895933
