# .PCD v0.7 - Point Cloud Data file format
VERSION 0.7
FIELDS x y z rgb
SIZE 4 4 4 4
TYPE F F F U
COUNT 1 1 1 1
WIDTH 1123
HEIGHT 1
VIEWPOINT 0 0 0 1 0 0 0
POINTS 1123
DATA ascii
0.11499511 -0.19358596 0.65528589 8094085
0.12525339 -0.19372933 0.6549387 8093829
0.13046046 -0.1927792 0.65800005 7896450
0.26782691 -0.19773565 0.6522857 8093571
0.27481258 -0.19776425 0.65466666 7633021
0.28515199 -0.19812511 0.6558724 7370106
0.29542354 -0.19835724 0.65686679 7304313
0.30402634 -0.19871065 0.65566683 7238520
0.31488487 -0.19923764 0.65444452 7238520
0.32442448 -0.19925876 0.65563643 7106934
0.33409357 -0.19962962 0.65750009 7172727
-0.25431728 -0.18600105 0.65579671 8288377
-0.24593806 -0.1888171 0.65585721 9409175
-0.23840232 -0.18875653 0.65900004 9343897
-0.1608187 -0.18929598 0.65900004 8752272
-0.15569814 -0.18903928 0.65408343 8883859
-0.041853495 -0.18796551 0.65500003 9869982
-0.036152456 -0.18930189 0.65528572 9409689
0.33848089 -0.20051607 0.66400003 7172727
0.34590554 -0.2019325 0.66297626 7041395
0.35147938 -0.20112002 0.66599995 6975602
-0.23390774 -0.19066378 0.66000003 9146517
-0.22407456 -0.19119994 0.66078579 9080724
-0.21480738 -0.19149378 0.66100013 9014931
-0.20442013 -0.19116321 0.66079998 9014931
-0.19503039 -0.19098216 0.66237056 8949395
-0.18507896 -0.19116625 0.6627931 8818065
-0.17498241 -0.19116312 0.66300005 8818065
-0.16620819 -0.19090773 0.66179991 8752272
-0.1531221 -0.19044498 0.66300005 8752274
-0.032811496 -0.19058861 0.66350001 9146774
-0.024694504 -0.19073223 0.66400003 8949651
-0.01492297 -0.19073223 0.66400003 8621456
-0.0051514339 -0.19073223 0.66400003 8424079
0.0046201013 -0.19073223 0.66400003 8226700
0.014934498 -0.19073223 0.66400003 8095113
0.025248894 -0.19073223 0.66400003 8226441
0.03583473 -0.19100399 0.66400003 8226187
0.045301855 -0.19230762 0.66195548 8095114
0.055046659 -0.19232047 0.66200012 8094601
0.063944899 -0.19183598 0.66303444 8225930
0.075192302 -0.19127578 0.66399986 8160136
0.084963828 -0.19127578 0.66399986 8291721
0.09487804 -0.1915638 0.66500002 8094342
0.10509551 -0.19136214 0.66429985 8094086
0.11522777 -0.19105175 0.66322219 8028036
0.12486311 -0.19085966 0.66255558 8093829
0.13090974 -0.19098771 0.66300005 8093059
0.26899272 -0.1944457 0.66000003 7699071
0.27483213 -0.19342884 0.66335374 7501692
0.28476456 -0.19419183 0.6653114 7304313
0.29468986 -0.19495374 0.66615486 7370106
0.30588946 -0.19716446 0.66315395 7238520
0.31492436 -0.19753173 0.66284215 7172984
0.32511979 -0.19759302 0.66333336 7106934
0.33464935 -0.19786321 0.66504645 7107191
0.34321645 -0.19851357 0.66665208 6910068
0.35147935 -0.19893929 0.66600001 6975602
-0.25313479 -0.18377987 0.66414297 10657437
-0.24589901 -0.18671447 0.66520005 9803676
-0.23472066 -0.1881444 0.66334099 9146518
-0.22504862 -0.18853159 0.66368091 9015188
-0.2151289 -0.18855312 0.66400021 9080724
-0.20493859 -0.18843722 0.66383332 8949395
-0.1947941 -0.18846241 0.66463894 8883858
-0.18507105 -0.18869171 0.66521621 8883602
-0.17547531 -0.18884058 0.66536355 8883858
-0.16498861 -0.18891534 0.66417879 8752272
-0.15517151 -0.18813206 0.66249996 8818322
-0.040074915 -0.18667993 0.66700006 10461345
-0.034971651 -0.18766828 0.66549987 9672860
-0.024806073 -0.18831308 0.667 8949651
-0.014990393 -0.18831308 0.66700011 8621200
-0.0051747086 -0.18831308 0.66699994 8424077
0.0046409741 -0.18831308 0.66700011 8226698
0.015001973 -0.18831313 0.66700006 8226442
0.025362974 -0.1883131 0.66700006 8226698
0.035178658 -0.18831308 0.66700006 8291722
0.044267084 -0.18913081 0.66547614 8160650
0.05464568 -0.18938638 0.66500002 8094858
0.064200215 -0.18960649 0.66450006 8291723
0.075192302 -0.18964514 0.66400003 8225928
0.084963828 -0.18964514 0.66400003 8160135
0.094878048 -0.18993071 0.66500002 8094342
0.10674395 -0.189329 0.6665262 8094086
0.1150739 -0.18887654 0.66705543 8093572
0.12473452 -0.18864071 0.6662221 8093572
0.13110977 -0.18850732 0.66627276 8093573
0.27570823 -0.18926845 0.66842872 7435899
0.28031814 -0.18943024 0.66900003 7370363
-0.25579596 -0.17904341 0.66500002 11052451
0.066011913 -0.19026186 0.67000002 8291723
0.074776202 -0.19026186 0.67000002 8225929
0.08463604 -0.19026186 0.67000002 8094342
0.095043644 -0.19026186 0.67000002 8094342
0.10380793 -0.19026186 0.67000002 8159622
0.28593841 -0.19109887 0.67140007 7370362
0.29564494 -0.19152194 0.67445707 7304570
0.30468535 -0.19339438 0.67329627 7173240
0.31481892 -0.19397038 0.67530221 7041654
0.32496107 -0.19400936 0.67509133 7041654
0.33498219 -0.1945869 0.67579621 6910068
0.34503832 -0.19644482 0.67393339 6909812
0.35388535 -0.19745235 0.67491668 6909811
-0.25377196 -0.18253163 0.67455572 10460832
-0.24430443 -0.18433902 0.67357117 9541018
-0.23481248 -0.18500414 0.67252612 9080981
-0.22468281 -0.18516286 0.67373693 9080980
-0.2147952 -0.18528995 0.67352939 9015443
-0.2051018 -0.18518499 0.67350006 8949651
-0.19496833 -0.18519153 0.67384225 8883859
-0.18494651 -0.18572694 0.67515802 8818065
-0.17463449 -0.1860496 0.67545795 8752785
-0.16497101 -0.18571652 0.67342865 8818578
-0.15823299 -0.1855129 0.67171991 8753042
-0.040375326 -0.18422866 0.67200011 9738907
-0.035220392 -0.1841093 0.67530781 9738652
-0.025103597 -0.18560371 0.67499983 9081236
-0.015156837 -0.18542036 0.67433316 8621199
-0.0055734147 -0.18553564 0.67399985 8423821
0.0046896809 -0.18588045 0.67399985 8292491
0.014608377 -0.18588038 0.67399985 8292234
0.024527075 -0.18588041 0.67399985 8292235
0.034996811 -0.18588038 0.67399985 8160650
0.045629468 -0.18703958 0.67258799 8226185
0.055261988 -0.18711212 0.67249978 8160650
0.065158598 -0.18711206 0.67249978 8160394
0.075055212 -0.18711208 0.67249978 8160136
0.084976286 -0.18716383 0.67268485 8094343
0.095144816 -0.18739006 0.67321396 8094343
0.10480285 -0.18718557 0.67374974 8159623
0.11552167 -0.18611322 0.67559087 8094086
0.12488482 -0.18526396 0.67616463 8028036
0.13234329 -0.1852791 0.67585725 8028035
0.27746072 -0.18507951 0.6753062 7436154
0.28480187 -0.18712154 0.67575008 7436155
0.29542559 -0.18880759 0.67857152 7370106
-0.25674012 -0.17947778 0.67900002 10461090
0.30511421 -0.19077316 0.68162507 7238776
0.3151089 -0.19103682 0.68415785 7172983
0.32540706 -0.1912273 0.68475014 7107188
0.33553511 -0.19150746 0.685 7041139
0.34560394 -0.19290353 0.68371725 6975604
0.35520309 -0.19350019 0.68583012 6910068
0.36090764 -0.1943493 0.68600005 6778738
-0.25328866 -0.18105474 0.68369567 10001054
-0.24458748 -0.18140501 0.68227267 9409689
-0.23473872 -0.18145858 0.68209082 9212567
-0.22492653 -0.18159576 0.68289125 9080723
-0.21512184 -0.18191434 0.68399996 9146514
-0.20509516 -0.18194947 0.68413329 8949395
-0.19504069 -0.18214159 0.6851275 8818065
-0.18484069 -0.18306586 0.68410009 8752529
-0.17487793 -0.1831729 0.68450016 8752529
-0.16601522 -0.18265684 0.68257153 8752529
-0.03331127 -0.18197201 0.68304002 10132638
-0.025433453 -0.18244225 0.68388897 9147030
-0.015355879 -0.18226482 0.68322247 8555663
-0.005105529 -0.18241909 0.68279332 8358284
0.0047493195 -0.18264847 0.68257171 8292492
0.014794159 -0.18264839 0.68257177 8160907
0.024867339 -0.18285231 0.68333375 8160650
0.034927636 -0.18287769 0.68342888 8160906
0.044787172 -0.18307273 0.68330544 8095114
0.055048283 -0.1834587 0.68350017 8095114
0.065090068 -0.18341358 0.68333352 8029321
0.075110286 -0.18332313 0.68300027 8029064
0.084875509 -0.18337455 0.68282384 8094343
0.094706573 -0.18342863 0.68338925 8160135
0.10474478 -0.1833985 0.6832779 8094342
0.11405298 -0.18311337 0.68346679 8028549
0.12522213 -0.18181153 0.68412507 8093829
0.1350282 -0.18147328 0.68463647 8093313
0.28663826 -0.18276066 0.682257 7304568
0.29509756 -0.18578877 0.68477261 7435642
0.30519387 -0.18850479 0.68556249 7304313
0.31419283 -0.18883584 0.68676919 7172726
0.32127455 -0.18975812 0.68400002 7107188
-0.2545183 -0.17904074 0.68800002 10066590
-0.2446804 -0.17883834 0.68722236 9409689
-0.23505171 -0.17878051 0.68700016 9212823
-0.22550337 -0.17878051 0.68700016 9015444
-0.21539335 -0.17878051 0.68700016 9015700
-0.20538132 -0.17886727 0.68733346 9015187
-0.19597922 -0.17939401 0.68842858 8883858
-0.03550417 -0.17967959 0.68400002 10855841
0.12928382 -0.17930099 0.68900001 8159622
0.13548015 -0.17930096 0.68900007 8027521
0.28576526 -0.17911212 0.68439996 7238776
0.29080641 -0.17908186 0.68600005 7238520
0.31957984 -0.19029303 0.69000006 7238774
0.32518899 -0.19060326 0.69112498 7172981
0.3353236 -0.19090587 0.69222218 7238004
0.34517935 -0.19072202 0.69155556 6975604
0.35553899 -0.19083723 0.69288892 6909555
0.36416182 -0.19223517 0.69342315 6778226
-0.26486987 -0.1814765 0.69300008 10592419
-0.1939158 -0.18018231 0.6945715 8883858
-0.1849032 -0.18112384 0.69166684 8752272
-0.17495036 -0.18135627 0.69255567 8686737
-0.166132 -0.18138316 0.69451863 8686738
-0.03418972 -0.18048501 0.69137502 10593184
-0.024639882 -0.18090922 0.69299996 9213078
-0.014986495 -0.18064818 0.69199997 8621456
-0.005368663 -0.18064818 0.69199997 8424331
0.0048149251 -0.18064818 0.69199997 8358284
0.014998512 -0.18064818 0.69199997 8357514
0.025182098 -0.18064818 0.69199997 8226441
0.035365686 -0.18064818 0.69199997 8357513
0.045717314 -0.18081433 0.69145453 8095114
0.054522447 -0.18095273 0.69100004 8095114
0.064691313 -0.18095273 0.69100004 8029320
0.074860185 -0.18095273 0.69100004 8029321
0.085029058 -0.18095273 0.69100004 8094343
0.095197931 -0.18095273 0.69100004 8160135
0.10536682 -0.18095273 0.69100004 8094342
0.11497074 -0.18095274 0.69100004 8028549
0.12394091 -0.18085456 0.69062507 8028549
0.29636618 -0.1816985 0.69133353 7304310
0.30475718 -0.18483606 0.69431579 7370104
0.3147966 -0.18717211 0.69438457 7172727
0.32483104 -0.18817806 0.69472504 7369846
0.33462963 -0.18866293 0.69587165 7238260
0.34517935 -0.18902367 0.69155568 6975603
0.35415205 -0.18914162 0.69233328 6909555
0.36401963 -0.1894352 0.69514287 6777969
-0.26305518 -0.17857274 0.69540012 10461091
-0.25505242 -0.17671883 0.69623518 9869981
-0.24496289 -0.17629321 0.69535309 9409689
-0.23517951 -0.17632969 0.6947059 9147030
-0.22512409 -0.17617798 0.69449997 9081237
-0.21490377 -0.17617796 0.69450021 9015444
-0.20484529 -0.17631896 0.69505554 8949651
-0.1958711 -0.17711942 0.69561535 8818065
-0.18520838 -0.17827395 0.69599998 8686736
-0.175579 -0.17866248 0.69716018 8686993
-0.16649865 -0.17914742 0.69866675 8687251
-0.034036037 -0.17769574 0.69559091 10790049
-0.02493323 -0.17804314 0.6969232 9278358
-0.015061948 -0.17812741 0.69545001 8818065
-0.0053919367 -0.17801294 0.69500017 8620685
0.0048357993 -0.17801295 0.69500005 8358284
0.015063533 -0.17801289 0.69499993 8357770
0.025291272 -0.17801294 0.69500011 8226698
0.035186082 -0.17805748 0.69485724 8226442
0.044820156 -0.17793331 0.69500017 8095114
0.054806504 -0.17790939 0.69460016 8160907
0.065028347 -0.17790943 0.69460016 8029320
0.074892722 -0.17816867 0.69539052 8095112
0.084707983 -0.17821883 0.69580024 8094343
0.094947472 -0.17821884 0.69580024 8094342
0.10498531 -0.17858189 0.69557923 8094086
0.11530125 -0.17869604 0.69562888 8028036
0.12474849 -0.17861517 0.69512504 8093829
0.13440788 -0.17804626 0.69511104 8028035
0.1406374 -0.17801778 0.69500011 7961470
0.29405835 -0.17851594 0.69339997 7107444
0.36755747 -0.19042541 0.70300001 6777969
0.37100598 -0.19042541 0.70300001 6777969
-0.27436483 -0.18057226 0.70725 10724005
-0.26888034 -0.18096007 0.70200002 10395298
-0.16901645 -0.18153472 0.70200002 8687251
0.30693349 -0.18214551 0.70187491 7238773
0.31427908 -0.18396856 0.7035116 7304053
0.32465401 -0.18578349 0.70421898 7369589
0.33571395 -0.18664418 0.70466679 7172980
0.34505093 -0.18770517 0.70323557 7106930
0.3548255 -0.1880281 0.70353353 6975602
0.36460623 -0.18857606 0.70141172 6778225
0.37100595 -0.18869899 0.70300001 6777969
-0.2729955 -0.17636128 0.70789647 10263968
-0.2651757 -0.17495686 0.70464915 10132639
-0.25445729 -0.17272665 0.70531577 9541275
-0.24514231 -0.1725553 0.70536572 9278359
-0.23522928 -0.17259166 0.70539969 9212566
-0.22507526 -0.17263131 0.7052322 9081237
-0.21493143 -0.1725916 0.70539963 9015444
-0.20501693 -0.17276512 0.70541453 8949908
-0.19412763 -0.1745306 0.70357138 8752529
-0.1850111 -0.17543046 0.70484209 8752273
-0.1752039 -0.176424 0.70525563 8818065
-0.16905467 -0.17852032 0.70599997 8753043
-0.034310926 -0.17491435 0.70542866 10855329
-0.024788294 -0.17496732 0.70499998 9541016
-0.014117719 -0.1740863 0.70522195 8752528
-0.0048971018 -0.17378618 0.70557106 8489870
0.0049147313 -0.17392692 0.70614249 8424077
0.014993074 -0.17407191 0.70625377 8423821
0.024787903 -0.17392403 0.70659959 8292236
0.034926776 -0.17447072 0.70599967 8226699
0.045012917 -0.17445718 0.70552909 8160649
0.054794792 -0.17428286 0.70564681 8291978
0.06489522 -0.17434843 0.70549989 8029321
0.074989378 -0.17441398 0.70535278 8094857
0.08508791 -0.17436199 0.70555538 8094343
0.095249869 -0.17441235 0.7061761 8028550
0.10521205 -0.17486978 0.70552588 8028293
0.11516779 -0.17494136 0.705571 7962243
0.12521814 -0.17484173 0.70564371 7962243
0.13475566 -0.17479073 0.70449167 8093571
0.1416824 -0.17448357 0.70484 8027520
0.30360878 -0.17929848 0.70000005 7041908
-0.25243297 -0.16941567 0.70900005 9212823
-0.24489745 -0.1694157 0.70899993 9212823
-0.23504335 -0.16941565 0.70899987 9146774
-0.22518921 -0.16941567 0.70899993 9081750
-0.21533512 -0.16999608 0.70900005 9081237
-0.20606065 -0.1699961 0.70900005 9081237
0.30779848 -0.18095198 0.71100003 6976115
0.31660149 -0.18172376 0.7129001 7106931
0.32438162 -0.18305136 0.71466666 7107186
0.33506358 -0.18562634 0.71807408 7041393
0.34006539 -0.18593088 0.71900004 7041392
0.36841026 -0.18846489 0.71300006 6778482
0.3725307 -0.18784815 0.71066666 6712689
-0.29144502 -0.17274174 0.71799999 10461089
-0.28424808 -0.17339599 0.7134546 10395296
-0.27645385 -0.17299643 0.71264702 10198431
-0.26526183 -0.17099747 0.71075004 9738140
-0.25801322 -0.17081706 0.71000004 9409689
-0.22124933 -0.1702641 0.71500003 9081237
-0.21481918 -0.17026411 0.71500009 9081237
-0.20327255 -0.17075016 0.71285725 9015444
-0.19507162 -0.1713616 0.71227795 8949651
-0.18494201 -0.17174879 0.71421605 8949651
-0.17473996 -0.17328839 0.71417379 8883858
-0.16821298 -0.17690949 0.71621054 8818835
-0.034481369 -0.17230801 0.71418941 10395294
-0.025144828 -0.17227654 0.71332574 9475480
-0.016031975 -0.17147292 0.71355557 8752271
-0.0049625416 -0.17084937 0.71500009 8489870
0.0049749585 -0.17084938 0.71500009 8424077
0.014912457 -0.17084938 0.71500009 8358285
0.024849959 -0.17084938 0.71500009 8292492
0.034787465 -0.17143469 0.71500009 8226699
0.04472496 -0.1714347 0.71500009 8226698
0.05524702 -0.17143472 0.71500009 8160906
0.065184519 -0.17143466 0.71500009 8095113
0.075097404 -0.17138138 0.71477789 8094857
0.084940553 -0.17119497 0.71399999 8160135
0.094997026 -0.17143469 0.71500009 8028550
0.10493451 -0.17143469 0.71500009 7896964
0.11487202 -0.17143469 0.71500009 7962499
0.12480953 -0.17143464 0.71500009 7962243
0.13464051 -0.17130153 0.71444446 8159106
0.14273095 -0.17119496 0.71400005 8158848
0.30814466 -0.17888564 0.7129091 6975858
0.31323957 -0.17863613 0.71631271 6909809
-0.28314775 -0.16793512 0.71388239 10197918
-0.27546492 -0.16850111 0.71580529 10001053
-0.26487064 -0.16836531 0.71440625 9672089
-0.25556222 -0.16808732 0.71428585 9409689
-0.24521621 -0.16792296 0.71500009 9212566
-0.23469417 -0.16792294 0.71500009 9081237
-0.22475667 -0.16792293 0.71500009 9015957
-0.21481916 -0.16792294 0.71500009 9081237
-0.20488167 -0.16792293 0.71500009 9015445
-0.19583336 -0.16849929 0.71631813 9081238
-0.18545581 -0.16916677 0.71794128 8949650
-0.17898773 -0.16886234 0.71900004 9015698
-0.034333941 -0.16980301 0.71799999 10198173
-0.02491693 -0.16962563 0.71724999 9278614
-0.014908623 -0.16917233 0.7153334 8752270
-0.0049625421 -0.1690935 0.71500009 8424078
0.0049749585 -0.1690935 0.71500009 8424077
0.014912458 -0.1690935 0.71500009 8358284
0.024849959 -0.1690935 0.71500009 8358284
0.034787461 -0.1690935 0.71500009 8292491
0.04472496 -0.1690935 0.71500009 8226699
0.05349334 -0.1690935 0.71500009 8160907
0.36732838 -0.19102596 0.72233343 6910066
0.37415418 -0.19008335 0.72814292 6844273
0.32637465 -0.18132487 0.7217648 6975600
0.33475247 -0.18226755 0.72509086 6975342
0.34544557 -0.18541808 0.72453344 7106671
0.35433048 -0.18701904 0.7260589 6975599
0.36443421 -0.18837664 0.72586656 6975599
0.375855 -0.18615481 0.72811538 6778736
0.38186249 -0.18591098 0.72582144 6646895
-0.29166818 -0.17027599 0.72000003 10329503
-0.28931358 -0.17027599 0.72000003 10197917
-0.17297485 -0.17149201 0.72115004 8884115
-0.16496828 -0.17323819 0.72378355 8884372
-0.15876888 -0.17228925 0.72599989 8949652
-0.03288205 -0.17022452 0.72479999 9935772
-0.028701685 -0.17003663 0.72400004 9541529
0.058657952 -0.17051247 0.72100002 8160907
0.065142058 -0.17051245 0.72100008 8095113
0.075162947 -0.17051245 0.72100008 8095112
0.085129514 -0.17040735 0.7205556 8160135
0.095188946 -0.17048289 0.72087502 8028549
0.10522562 -0.17051245 0.72100008 7962757
0.11528648 -0.17057158 0.72125012 7962499
0.12538271 -0.17067012 0.72166675 7962242
0.1352883 -0.17051245 0.72100008 8224899
0.14354081 -0.17051245 0.72100002 8158849
0.31525341 -0.17656626 0.72288603 6778223
0.32334086 -0.1776983 0.72557157 6712429
0.33420721 -0.17931919 0.72799999 6844013
-0.29166818 -0.16850781 0.72000003 10197917
-0.28298348 -0.16647005 0.72075003 9935260
-0.27469632 -0.16521116 0.72446156 9672345
-0.26487166 -0.16469529 0.72400028 9475480
-0.25480905 -0.16469531 0.72400016 9278359
-0.24503617 -0.16475977 0.7238239 9147030
-0.23506241 -0.16468446 0.72441167 9081237
-0.22491588 -0.16475983 0.72382355 9081237
-0.21485601 -0.1646309 0.72417653 9015444
-0.20484453 -0.16479981 0.72400016 9015444
-0.19469647 -0.16545103 0.7252295 9015444
-0.18554588 -0.16659589 0.72478986 8949651
-0.17519891 -0.16778325 0.72476196 8818579
-0.1679507 -0.16840975 0.72850007 8884630
-0.03288205 -0.16844457 0.72479999 9804188
-0.023933271 -0.16759531 0.72523522 9147030
-0.015305417 -0.16687334 0.72469527 8818064
-0.0050250068 -0.16706598 0.72400016 8620943
0.0050375802 -0.16706601 0.72400022 8424079
0.015100167 -0.16706598 0.72400016 8292492
0.02488149 -0.16715673 0.72394127 8424078
0.034979708 -0.16728641 0.72541195 8358286
0.045043297 -0.16730557 0.72458845 8160906
0.055089395 -0.16712296 0.72470617 8160906
0.065159597 -0.16723727 0.72429442 8160906
0.075227708 -0.16710953 0.72464734 8095113
0.085175544 -0.16719224 0.72414011 8160136
0.094935179 -0.16728781 0.72495842 8028549
0.10511312 -0.16745032 0.72566694 8028549
0.11499915 -0.16769283 0.7255457 7962500
0.12501591 -0.16807508 0.72542876 7962242
0.13499188 -0.16789958 0.72539562 8159363
0.14438398 -0.16794702 0.72582871 8093313
0.33949074 -0.18078686 0.73299998 7040878
0.34534329 -0.18138602 0.73396415 6909292
0.35541227 -0.18326586 0.73308343 6975341
0.36504325 -0.18388116 0.73318982 6778478
0.37436715 -0.18296197 0.73402858 6778477
0.38415834 -0.18134819 0.73430002 6646636
-0.38050094 -0.17067656 0.73700005 9540505
-0.37648019 -0.17104046 0.73857147 9672091
-0.30135006 -0.17081507 0.73500007 10132125
-0.29654279 -0.17021339 0.73500001 10066333
-0.16242848 -0.17067042 0.73180002 8752787
-0.15657914 -0.17163968 0.73366672 9015446
-0.03789188 -0.17084819 0.73000002 10198687
0.31938279 -0.17261516 0.73500007 6252134
0.32534853 -0.1736573 0.73407006 6317927
0.3349728 -0.17621274 0.73570013 6449511
0.34530142 -0.17869255 0.73771435 6778220
0.38525036 -0.17876172 0.73800009 6515049
-0.38101721 -0.16667682 0.73800009 9343898
-0.37648022 -0.16862209 0.73857147 9409433
-0.30135003 -0.16840839 0.73500007 10001053
-0.29402667 -0.16735432 0.73700011 9869467
-0.28428727 -0.16412395 0.73467743 9672345
-0.27565682 -0.16218135 0.73303449 9540759
-0.26526454 -0.16140483 0.7332499 9409687
-0.25525442 -0.16152102 0.7337777 9278102
-0.24488218 -0.16140485 0.73324996 9212310
-0.23489088 -0.16127662 0.73388886 9080981
-0.22502811 -0.16109858 0.73437142 9080981
-0.21497129 -0.16107506 0.73449993 9015444
-0.20520253 -0.16129319 0.7341612 9015188
-0.19492139 -0.16173498 0.73475003 9015444
-0.18454216 -0.16281335 0.73313338 8950164
-0.17481394 -0.16352262 0.73403561 9015444
-0.16521958 -0.16613485 0.73469245 8818323
-0.15795821 -0.16802855 0.73511124 8949653
-0.041984122 -0.168115 0.73900002 10264481
-0.034699425 -0.16619433 0.73446828 9672858
-0.025898766 -0.16443937 0.73348933 9212822
-0.013983887 -0.16240919 0.73481572 8949651
-0.0051013539 -0.16238518 0.73499995 8686736
0.0051141181 -0.16238517 0.73500025 8489870
0.015348555 -0.16257778 0.73587489 8489870
0.024910213 -0.16397332 0.73400003 8424077
0.035155032 -0.1641719 0.73488891 8489872
0.045375098 -0.16419671 0.73499995 8292493
0.054989655 -0.16419671 0.73499995 8160907
0.064604215 -0.16419671 0.73499995 8160906
0.074819691 -0.1641967 0.73500007 8160649
0.084919475 -0.16397335 0.73400003 8160137
0.095121048 -0.16397333 0.73399997 8094342
0.10546611 -0.16419671 0.73499995 8094342
0.11541452 -0.1644641 0.73500007 8028293
0.12469526 -0.16479838 0.73500013 8028292
0.13491069 -0.16479836 0.73500019 8028034
0.1448373 -0.16518262 0.73522228 7962241
0.15130079 -0.1684579 0.73000002 5987167
0.31920776 -0.16805753 0.73875004 6054498
0.32322726 -0.16855389 0.73827785 6186084
-0.28130135 -0.15960023 0.73600006 9540759
-0.27469769 -0.15925945 0.73442858 9474966
-0.26526451 -0.1590039 0.73325002 9409943
-0.25525442 -0.15911835 0.73377776 9212566
-0.24813192 -0.15916653 0.73400003 9147030
-0.23169677 -0.15783098 0.73899996 8949651
-0.22523467 -0.15788363 0.73900014 9081237
-0.21538389 -0.15843596 0.73900008 9015444
-0.20813374 -0.15843594 0.73899996 8949651
-0.012983462 -0.15904088 0.73900002 8883858
-0.0051291171 -0.15904088 0.73899996 8686992
0.0051419497 -0.15904088 0.73899996 8489870
0.015413016 -0.15904088 0.73899996 8489870
0.31475982 -0.15240091 0.7374444 3748144
0.35585338 -0.18084632 0.74060011 6843241
0.36512062 -0.18075576 0.74122232 6778221
0.37471685 -0.18075326 0.74085718 6580842
0.38024762 -0.18106347 0.74000001 6844012
-0.37176481 -0.17076553 0.74000001 9606298
-0.36426857 -0.17251183 0.7415483 9672091
-0.35692424 -0.17300941 0.74312204 9869468
-0.15439679 -0.17069967 0.74500006 8949653
0.33554301 -0.17153528 0.74126303 6120291
0.34504071 -0.17429826 0.74409258 6383462
0.35448784 -0.17677654 0.7454471 6449256
0.36527944 -0.17832255 0.74606037 6515049
0.3760545 -0.17729308 0.74518746 6514793
0.38503242 -0.17567818 0.74578172 6514536
0.39221305 -0.17531152 0.74499995 6383464
-0.38202816 -0.16241062 0.74370593 9540506
-0.37509355 -0.16454968 0.74371028 9409432
-0.36526707 -0.16615225 0.74608129 9672090
-0.3559179 -0.16721497 0.7478537 9868956
-0.34520698 -0.16771322 0.74799979 9934747
-0.33909157 -0.16771318 0.74800009 10066333
-0.31298536 -0.16547012 0.74790621 10000797
-0.30493179 -0.16510202 0.74666142 9803931
-0.29545075 -0.16410096 0.74456531 9737881
-0.28684726 -0.16128859 0.74099994 9606552
-0.24411024 -0.16046761 0.74000007 9147030
-0.23685026 -0.16046761 0.74000001 9146773
-0.20297039 -0.16046761 0.74000001 9080978
-0.19530195 -0.16063026 0.74075013 9015443
-0.18512444 -0.16073266 0.74122232 8818836
-0.17398162 -0.16088426 0.74392855 9015444
-0.16437177 -0.1621784 0.74329418 8949651
-0.15660875 -0.16594303 0.74478596 8883859
-0.041883897 -0.16587627 0.74800009 9738908
-0.035486966 -0.16250511 0.74416131 9475736
-0.024552135 -0.16142708 0.74162501 9080979
-0.017841015 -0.16107337 0.74000001 9147030
0.025113838 -0.16167912 0.73999983 8424077
0.034830298 -0.161843 0.74075001 8424078
0.045083638 -0.1616382 0.74237126 8489871
0.055245418 -0.16161393 0.74249989 8226700
0.065108888 -0.16158807 0.7426362 8160907
0.074998386 -0.16166098 0.74271858 8160649
0.085167542 -0.16168743 0.74259979 8225929
0.095341966 -0.16166769 0.74274981 8225928
0.10515153 -0.16181102 0.74340636 8028549
0.11489006 -0.16183153 0.74350017 8094341
0.12515196 -0.16174053 0.74308324 8094084
0.13547274 -0.16172914 0.74303114 8028290
0.14544612 -0.16201156 0.74277753 7962497
0.15292823 -0.16252621 0.74442852 7501433
0.31757891 -0.1651531 0.74199992 5857119
0.32569236 -0.16461505 0.74233347 5988448
0.33472294 -0.1652731 0.74566114 5922656
0.34300762 -0.16756888 0.74836826 5857632
-0.38274238 -0.15843353 0.74694729 9672090
-0.37823007 -0.15852854 0.74800009 9606297
-0.31076419 -0.15935361 0.74900001 9869724
-0.305253 -0.15935363 0.74900001 9803932
-0.29469275 -0.15853728 0.74770594 9606810
-0.28496 -0.15704845 0.74557143 9475737
-0.27490708 -0.15688001 0.7431249 9409943
-0.26514086 -0.15685327 0.74300003 9278870
-0.2548328 -0.1568649 0.74305528 9212822
-0.24480954 -0.1569466 0.74286669 9147030
-0.23573233 -0.15651289 0.7438572 9081236
-0.22440408 -0.15593341 0.74600023 9081237
-0.21498445 -0.15627268 0.74600023 9015444
-0.20468895 -0.15683877 0.74457157 9015187
-0.19541831 -0.15745226 0.74478728 9015441
-0.18502606 -0.15797825 0.74502349 8884628
-0.17681834 -0.15847585 0.74568176 8884115
-0.16502541 -0.15937941 0.74625009 8949907
-0.030855557 -0.15903078 0.74750006 9212821
-0.024704123 -0.15875812 0.74621868 8949907
-0.015258914 -0.15823258 0.74533349 8818065
-0.0051766317 -0.15802521 0.7456252 8686992
0.0045746122 -0.15789272 0.74500006 8555664
0.014929073 -0.15789273 0.74500012 8489870
0.025266558 -0.1583925 0.7445001 8424077
0.035041884 -0.15855208 0.74524999 8489870
0.044894472 -0.1583166 0.74699992 8555663
0.054666009 -0.15831663 0.74699992 8358284
0.064706266 -0.15841447 0.74699992 8226698
0.075519584 -0.15911426 0.74787503 8095112
0.085316107 -0.15914086 0.74800009 8226185
0.095100731 -0.15914086 0.74800009 8160135
0.10488534 -0.15914086 0.74800009 8094342
0.11466996 -0.15914086 0.74800009 8094342
0.12506613 -0.15914087 0.74800009 8094342
0.13546227 -0.15914086 0.74800009 8094083
0.14524686 -0.15914084 0.74800009 8028290
0.15340169 -0.15935361 0.74900001 7699325
0.32498321 -0.15480642 0.74262494 3947580
0.33500466 -0.15515603 0.74733967 4211266
0.32466921 -0.14502423 0.74156231 7167828
0.33496761 -0.14494064 0.74694639 6378827
0.34906054 -0.1708449 0.75100005 6055011
0.35622361 -0.17251708 0.75245458 6055013
0.3651844 -0.1736104 0.75376481 6120548
0.37461272 -0.1733043 0.75370175 6317413
0.38492775 -0.17159431 0.75281805 6186084
0.39341632 -0.1715249 0.75128585 6448743
-0.37379333 -0.16082489 0.75014293 9606298
-0.36531347 -0.16114263 0.751625 9737881
-0.3546685 -0.16272211 0.75313973 9738138
-0.344937 -0.16310592 0.75372738 9803674
-0.33499071 -0.16386792 0.75278717 9803931
-0.32490021 -0.1633648 0.75104541 9935260
-0.31707489 -0.16267185 0.75016671 10066333
-0.30566055 -0.16079426 0.75000006 9803931
-0.16051906 -0.16084978 0.75200003 8883858
-0.15447362 -0.16314441 0.75390917 8883858
-0.14878583 -0.16440494 0.75675011 8949651
-0.043914206 -0.16345695 0.75550008 9673115
-0.035962235 -0.16060746 0.75200003 9344663
0.34626159 -0.16358599 0.75270253 5659996
0.35492194 -0.16578865 0.75631499 5726047
0.36354098 -0.16788045 0.75826097 5857633
0.37869647 -0.16990073 0.75500005 6186597
0.38479808 -0.16832164 0.75646156 6054754
0.39474782 -0.16792683 0.75474209 6383206
-0.39082658 -0.15299988 0.75700003 9606298
-0.38469726 -0.15441784 0.75541168 9606555
-0.37463218 -0.15562052 0.75515407 9606554
-0.36486793 -0.15736286 0.75402433 9803418
-0.35571834 -0.15771365 0.75714618 9737882
-0.3443599 -0.15765736 0.75688881 9672345
-0.33494517 -0.155898 0.75643641 9738138
-0.32516545 -0.15489657 0.75381249 9869467
-0.31510746 -0.15472952 0.75226134 10001053
-0.30503517 -0.15447326 0.75161004 9804188
-0.29506609 -0.15369529 0.75255013 9607322
-0.28478318 -0.1524844 0.75447506 9607322
-0.27488583 -0.15246847 0.75439978 9475736
-0.26480967 -0.15243383 0.75466686 9278613
-0.25567889 -0.15295321 0.75450027 9212821
-0.2453206 -0.1534242 0.7530002 9081492
-0.23547052 -0.1534242 0.7530002 9146771
-0.2250049 -0.15342419 0.7530002 9212823
-0.21453924 -0.15342419 0.7530002 8884372
-0.20472246 -0.15344967 0.75312513 9080979
-0.19485135 -0.1541217 0.75399983 9015443
-0.18480574 -0.1544043 0.75477773 8753044
-0.17427188 -0.155912 0.75458008 8818578
-0.16559823 -0.15718837 0.75513965 8883858
-0.15696463 -0.15866074 0.75739992 8949651
-0.041768949 -0.15919662 0.75700003 9344409
-0.034365378 -0.15757982 0.75455558 9147287
-0.024991153 -0.156278 0.754875 8884628
-0.015140246 -0.15405893 0.75616068 8621456
-0.0054275757 -0.15433024 0.75570595 8621456
0.0046390868 -0.15454341 0.75550014 8555663
0.014843341 -0.15461047 0.7552942 8555663
0.025021821 -0.15455639 0.7555626 8489870
0.034462187 -0.1548245 0.75557172 8489870
0.045315165 -0.15609683 0.75399989 8555663
0.055178266 -0.15609682 0.75399989 8292492
0.065213978 -0.15619558 0.75399989 8226698
0.074904472 -0.15671411 0.75399983 8160905
0.084767573 -0.15671408 0.75399983 8160905
0.094679259 -0.156792 0.75437492 8160392
0.10445955 -0.15744105 0.75499994 8160135
0.11450859 -0.15753995 0.75499994 8160135
0.12500198 -0.15753993 0.75499988 8160391
0.13549544 -0.15753995 0.75499994 8094339
0.1452979 -0.15746169 0.75462502 8094083
0.15397996 -0.15750518 0.7548334 7962240
0.33817178 -0.1546548 0.75000006 4145731
0.34581488 -0.15481544 0.7536599 4409160
0.35434842 -0.15513867 0.75837505 4737869
-0.32603011 -0.14846575 0.7560001 9869724
-0.31201911 -0.14826937 0.75500005 9935517
-0.30482498 -0.14869018 0.75399989 9804445
-0.29518673 -0.14725515 0.75707167 9673115
-0.28522906 -0.14878486 0.75762504 9607322
-0.27617139 -0.14900172 0.75800002 9607322
-0.2649976 -0.14952284 0.75822216 9409943
-0.25720382 -0.14967622 0.75900006 9278613
0.34557211 -0.14484389 0.75371426 5458500
0.35378361 -0.14537258 0.75821078 4275515
-0.14047636 -0.1708522 0.76200002 9081239
-0.13495634 -0.17096432 0.76250005 9212568
-0.12880847 -0.17107642 0.76300001 9278103
-0.15185638 -0.16116074 0.76160002 8949651
-0.14447311 -0.16249597 0.76708841 8949651
-0.13501294 -0.16633542 0.7647059 9146774
-0.12888055 -0.16706298 0.76466674 9475482
-0.045782737 -0.16149567 0.76200002 9541531
0.35883582 -0.16169392 0.76000005 5528152
0.36578906 -0.16356739 0.76131707 5594460
0.37510291 -0.16545053 0.76226068 5857375
0.38493878 -0.16322562 0.76337934 5857376
0.39469463 -0.16289552 0.76274979 5988705
0.40199965 -0.16229165 0.76373905 6185570
-0.39205289 -0.15108961 0.76300001 9409177
-0.38506991 -0.15128763 0.764 9474713
-0.37469018 -0.15182042 0.76421064 9606553
-0.36485279 -0.15278786 0.76259524 9738138
-0.35525548 -0.15309004 0.76315767 9672602
-0.34531635 -0.15265085 0.76145732 9672345
-0.33704647 -0.15096696 0.76133341 9672600
-0.25257188 -0.15173982 0.76000011 9212823
-0.2451157 -0.15173984 0.76000017 9081236
-0.23517412 -0.15173981 0.76000017 9212564
-0.22523248 -0.15173981 0.76000017 9081494
-0.2152909 -0.15173982 0.76000017 8884371
-0.20534934 -0.15173984 0.76000017 8884628
-0.19457066 -0.1512665 0.76142848 8753042
-0.18483107 -0.15124634 0.76381254 8753042
-0.17502426 -0.15201311 0.764 8753042
-0.16423693 -0.15355694 0.7647332 8818578
-0.15519188 -0.15642929 0.76497823 8949908
-0.14905635 -0.15840986 0.76640004 8883858
-0.043566704 -0.15651178 0.76481819 9213080
-0.035444539 -0.15372966 0.76356858 8950165
-0.025420167 -0.15266521 0.76242846 8818578
-0.01533659 -0.15105663 0.76600003 8621456
-0.0045939125 -0.15153898 0.76599991 8687249
0.0047035613 -0.15168366 0.76599991 8621456
0.014714024 -0.15158466 0.76550007 8555663
0.024743708 -0.15168366 0.76599991 8555663
0.035715416 -0.15224396 0.76454544 8555406
0.044582762 -0.15286687 0.76255023 8555663
0.054951169 -0.1529645 0.76260471 8358285
0.065298826 -0.15291637 0.76280016 8358284
0.075277045 -0.1529164 0.76280016 8226698
0.085477963 -0.15270518 0.76419562 8160905
0.09532059 -0.15262966 0.76450008 8095112
0.10542887 -0.15311159 0.76412749 8226184
0.11543041 -0.15328054 0.76462507 8160135
0.12537692 -0.15332225 0.76483637 8225927
0.13549851 -0.15355493 0.76600027 8160133
0.14534259 -0.153513 0.76545477 8094084
0.15489081 -0.15365627 0.76399994 8028033
0.35918799 -0.15530968 0.76082355 4737870
0.36522225 -0.15496106 0.76307857 4869455
0.37530705 -0.15534738 0.76598346 5001041
0.38475484 -0.15502048 0.76788002 5067603
0.39392087 -0.15644459 0.76783347 5330775
0.40300563 -0.15812007 0.76763636 5790813
-0.39409819 -0.14757076 0.76800013 9409691
-0.38548428 -0.14840695 0.76726103 9474712
-0.37556833 -0.14960696 0.76499999 9606553
-0.36519909 -0.14971562 0.76555562 9738138
-0.35358259 -0.14840664 0.76763636 9738394
-0.34463882 -0.14643154 0.76660013 9607065
-0.3363876 -0.14624014 0.7642855 9672858
-0.29344535 -0.14361098 0.76357144 9804444
-0.28516802 -0.14504977 0.76411104 9607322
-0.27469751 -0.14565314 0.76576799 9607578
-0.265273 -0.14760761 0.76437497 9410200
-0.25482869 -0.14805871 0.7651 9212823
-0.24501945 -0.14891708 0.76518196 9081237
-0.23491745 -0.14902516 0.76525015 9081237
-0.22490719 -0.14902516 0.76525015 8949651
-0.21489689 -0.14902517 0.76525015 9015444
-0.20488665 -0.14902519 0.76525015 8949908
-0.19528966 -0.14871596 0.76686966 8818322
-0.18511683 -0.1484766 0.768875 8818835
-0.033621073 -0.14909144 0.76880008 8884628
-0.024857704 -0.14930823 0.76714295 8687249
-0.015336588 -0.14917549 0.76599991 8621456
-0.0053165141 -0.14917549 0.76599991 8753042
0.0047035613 -0.14917548 0.76599991 8621456
0.014714023 -0.1490781 0.76550001 8555663
0.024256624 -0.14966321 0.76600003 8555663
0.034776356 -0.14985144 0.76625001 8489870
0.044807315 -0.14987588 0.76637495 8489870
0.054875474 -0.14999808 0.76700008 8424077
0.064908631 -0.14999808 0.76700008 8358284
0.074941792 -0.14999808 0.76700008 8292491
0.081212506 -0.1499981 0.76700002 8226698
0.14956339 -0.1499981 0.76700002 7962243
0.15457997 -0.14999808 0.76700008 7962497
0.3592979 -0.14418639 0.76106662 3815480
0.36570489 -0.14514989 0.76414293 3882301
0.37517253 -0.14547214 0.76764017 4211267
0.38125929 -0.1454792 0.76888233 4408902
-0.14015742 -0.16023734 0.77400005 9015444
-0.1350944 -0.1617623 0.77221888 9015444
-0.12551501 -0.16366298 0.77700013 9212822
-0.11877191 -0.16446088 0.77900004 9475736
-0.05379086 -0.16159038 0.77320004 9673373
-0.048908196 -0.16171914 0.77200001 9541788
-0.17537169 -0.15063369 0.77025002 8818835
-0.16496783 -0.15091074 0.77166665 8818578
-0.1537865 -0.15267575 0.77235305 8753042
-0.14522919 -0.15530159 0.77444434 8818322
-0.13581952 -0.15731129 0.77651614 9081237
-0.12768827 -0.15935941 0.77900004 9081237
-0.060815565 -0.15680867 0.77900004 9541788
-0.054206066 -0.15541066 0.77610165 9344922
-0.046098307 -0.15331037 0.77322865 9081750
-0.038129024 -0.15141149 0.77100003 8818835
0.038923625 -0.15009987 0.77400005 8489870
0.04082201 -0.15009987 0.77400005 8555663
0.055376302 -0.15009987 0.77400011 8424077
0.065501027 -0.15009987 0.77400011 8358284
0.074992955 -0.15009987 0.77400011 8226698
0.084554628 -0.15022108 0.77462506 8226698
0.094731838 -0.15029381 0.77500004 8226698
0.10486963 -0.15029381 0.77500004 8160905
0.11500745 -0.15029381 0.77500004 8095112
0.12524463 -0.150415 0.77562505 8160392
0.13543652 -0.15046346 0.77587503 8094342
0.14497407 -0.15048774 0.77600002 8159622
0.15449052 -0.15048772 0.77600002 7962242
0.16084501 -0.15117149 0.77300006 7896704
0.38810882 -0.15121512 0.77000004 4936017
0.39613259 -0.15277545 0.77053857 5133139
0.40426624 -0.15361759 0.77100027 5198933
-0.40063596 -0.14413542 0.77600002 9541275
-0.39444152 -0.14450707 0.77419984 9409690
-0.38502911 -0.14475253 0.77454913 9540761
-0.37527874 -0.14504912 0.77416688 9672089
-0.36512324 -0.14499976 0.77339697 9738138
-0.35569009 -0.14429407 0.77279997 9803931
-0.34510231 -0.14202112 0.77182353 9738138
-0.29364738 -0.14142327 0.77159995 9804701
-0.28517428 -0.14129038 0.77087504 9673115
-0.27513704 -0.14167616 0.77352631 9673116
-0.2648108 -0.14287034 0.77323538 9410201
-0.25564864 -0.14352624 0.77471405 9212823
-0.24509414 -0.14560202 0.7736668 9081237
-0.2344439 -0.14566475 0.77400011 9015444
-0.2251953 -0.14581098 0.77400011 8949651
-0.2155288 -0.14634559 0.77425009 9081494
-0.20533533 -0.14629835 0.77400011 8884629
-0.19488199 -0.14652933 0.77522224 8752786
-0.18435341 -0.14672358 0.77625018 8818835
-0.17516303 -0.1476769 0.77408135 8818835
-0.16498835 -0.14781371 0.77533334 8818577
-0.15633498 -0.14873458 0.7755385 8818578
-0.14604928 -0.14968424 0.77842861 8753042
-0.042238463 -0.14876981 0.77700013 8818835
-0.034851201 -0.14808968 0.77573085 8818835
-0.024993999 -0.14759277 0.77414292 8753042
-0.015476741 -0.14737487 0.77300006 8621456
-0.0053650984 -0.14737487 0.77300006 8687249
0.004745061 -0.14735103 0.77287507 8621456
0.01485251 -0.14730333 0.77262503 8555663
0.025112532 -0.14794637 0.77300024 8555663
0.034838744 -0.14791924 0.77320015 8555663
0.045340922 -0.14796482 0.77309698 8489870
0.055376299 -0.1481991 0.77400011 8489870
0.065501019 -0.1481991 0.77400011 8358284
0.074992955 -0.14819908 0.77400011 8292491
0.084554628 -0.14831875 0.77462494 8226698
0.094731838 -0.14839056 0.77499992 8226698
0.10486964 -0.14839056 0.77499992 8095112
0.11500743 -0.14839055 0.77499992 8095112
0.12524463 -0.14851023 0.77562499 8094856
0.13543652 -0.14855811 0.77587497 8094342
0.14497404 -0.14858203 0.77600002 8094342
0.15654497 -0.14760908 0.77674991 8028291
0.16125277 -0.14685881 0.77700013 7962497
0.3865813 -0.14470524 0.77046686 4474952
0.39547494 -0.14530371 0.77208912 4737868
0.40509689 -0.14553215 0.77398199 4869455
0.41016594 -0.14286497 0.77600002 4540491
-0.38244146 -0.13959116 0.77900004 9672091
-0.37479889 -0.13959116 0.77900004 9540759
-0.3632966 -0.13866466 0.77810007 9672345
-0.35434341 -0.13771878 0.77700007 9672345
-0.34583595 -0.13814537 0.77434778 9672858
-0.29227588 -0.13840644 0.77442867 9936287
-0.28431514 -0.13800354 0.77368754 9804701
-0.27506825 -0.13844381 0.77615649 9607835
-0.26780254 -0.13831578 0.7790001 9475995
0.38717359 -0.13730948 0.77028584 3419948
0.395156 -0.1350853 0.77146423 4538424
0.40469372 -0.13527869 0.77426672 4538426
0.41016597 -0.13524219 0.77600002 4537914
-0.12294669 -0.16109876 0.78125006 9212823
-0.11516397 -0.16194655 0.78281826 9410201
-0.10586266 -0.16198227 0.78242856 9738908
-0.1412439 -0.15254045 0.78000003 8884372
-0.13427922 -0.15297955 0.78212798 9081237
-0.12486379 -0.15445994 0.78421146 9147030
-0.11499276 -0.15481478 0.7856667 9212823
-0.10510727 -0.15489995 0.78524643 9410201
-0.095131747 -0.15486278 0.78468603 9673116
-0.084991723 -0.15472521 0.784639 9870495
-0.075067177 -0.15458855 0.78373879 9739166
-0.065509424 -0.15480815 0.78180367 9607581
-0.056944977 -0.15148072 0.78207147 9279386
-0.049478371 -0.15017872 0.78100002 9147800
0.15668046 -0.15133245 0.78700012 8093828
-0.40234408 -0.14167102 0.78142864 9541018
-0.3954117 -0.14181562 0.78071439 9475225
-0.38803405 -0.14168587 0.78000009 9540762
-0.26314649 -0.14016458 0.78220004 9344409
-0.2537075 -0.14134149 0.78306663 9147030
-0.24509577 -0.14199947 0.7817502 9081237
-0.23500976 -0.14208496 0.78221893 8950164
-0.22461493 -0.14247155 0.78238904 8884629
-0.21490975 -0.14283516 0.78246158 8884628
-0.20512812 -0.14257467 0.78391099 8818835
-0.19516304 -0.14378734 0.78255564 8753042
-0.18467738 -0.14415367 0.78300017 8753042
-0.17465775 -0.14433782 0.78400016 8818579
-0.16463538 -0.14454491 0.78512508 8818578
-0.15442923 -0.14611498 0.78393316 8818835
-0.14475417 -0.1466295 0.78551054 8950421
-0.13611187 -0.14847849 0.78554559 9016214
-0.12539589 -0.14841712 0.788625 9016214
-0.11513612 -0.14848769 0.78899992 9147286
-0.10471676 -0.14834654 0.78824997 9410201
-0.095018707 -0.14829947 0.78800005 9344409
-0.086196862 -0.14848298 0.78783339 9278616
-0.074024901 -0.14900339 0.78645462 9147800
-0.064911269 -0.14683688 0.78769571 9082007
-0.055347912 -0.14697428 0.78542519 9082007
-0.045900326 -0.14669357 0.78348577 8884628
-0.034119021 -0.14386182 0.78559089 8753042
-0.024849702 -0.14364244 0.78473973 8753042
-0.015046407 -0.14359573 0.78350019 8753042
-0.0054379744 -0.14359574 0.78350002 8687249
0.0048110182 -0.14359577 0.78350002 8687249
0.015060009 -0.14359577 0.78350002 8621456
0.025309004 -0.14359577 0.78350002 8555663
0.035247147 -0.14368127 0.78326678 8555663
0.044853177 -0.14355914 0.78400004 8555663
0.054885261 -0.14424467 0.7839269 8424077
0.064994916 -0.14417049 0.78314263 8424077
0.075038746 -0.14442159 0.78371668 8292491
0.085075118 -0.14456515 0.78529078 8292491
0.09507183 -0.14459243 0.78622651 8226698
0.10535717 -0.14481808 0.78491664 8226441
0.11479744 -0.14508693 0.78549999 8226185
0.12489051 -0.1452262 0.78537512 8160393
0.13418119 -0.14630403 0.78337497 8160392
0.14503956 -0.14675918 0.78322244 8094342
0.15528244 -0.14519438 0.78626066 8094086
0.16223909 -0.14396657 0.78900003 8093827
-0.40354553 -0.13865551 0.78647059 9475482
-0.39491916 -0.13729665 0.7857675 9475225
-0.38568366 -0.13570248 0.78483349 9475482
-0.37486267 -0.13584043 0.78312516 9475481
-0.36560547 -0.13572955 0.78250015 9540760
-0.28205919 -0.13488296 0.78499991 10002080
-0.27489477 -0.13459793 0.78199983 9738908
-0.26450279 -0.13629569 0.78482485 9344409
-0.25513509 -0.13875814 0.78511119 9212823
-0.24481583 -0.13909198 0.787 9081237
-0.23452105 -0.139092 0.787 9015958
-0.22429626 -0.13913618 0.78724998 8950421
-0.21484756 -0.13926874 0.78800005 8884628
-0.20650667 -0.13891689 0.78875005 8818835
-0.38735086 -0.12975739 0.78900003 9606809
-0.20118357 -0.14091559 0.79000002 8884628
-0.1950184 -0.1414447 0.79000002 8753042
-0.18506525 -0.14158465 0.79012513 8818578
-0.17492379 -0.14174144 0.79100013 8883858
-0.16469139 -0.14146899 0.79312509 8884371
-0.15463522 -0.14166042 0.79383886 8950421
-0.14508556 -0.1417442 0.79503465 9016214
-0.13527256 -0.14376301 0.79294115 9081750
-0.12500273 -0.14428155 0.79431242 9081750
-0.11488887 -0.14411825 0.79413319 9081750
-0.10494161 -0.14370371 0.79390395 9147799
-0.094966471 -0.14357661 0.79363626 9147543
-0.084669337 -0.14420052 0.79352951 9082007
-0.075097218 -0.14407128 0.79265594 9016214
-0.065118186 -0.14175849 0.7943871 8950421
-0.054531999 -0.14192966 0.79324311 8950421
-0.044869293 -0.14190406 0.79233354 8884628
-0.037096746 -0.14142509 0.79231578 8818836
-0.024557766 -0.14099588 0.79514295 8753042
-0.014598901 -0.14097913 0.79400009 8884628
-0.0048617045 -0.14097913 0.79400009 8687249
0.0048754923 -0.14097913 0.79400009 8687249
0.015261836 -0.14097913 0.79400009 8621456
0.024999036 -0.14097913 0.79400009 8555663
0.034751717 -0.1410457 0.79437506 8555663
0.045122575 -0.14097913 0.79400009 8555663
0.055499461 -0.14095692 0.7938751 8424077
0.06516394 -0.14080156 0.7930001 8424077
0.074974269 -0.14095692 0.7938751 8358284
0.085226446 -0.14071912 0.79592323 8358284
0.094695643 -0.14068267 0.79600018 8226698
0.10372684 -0.14190534 0.79340005 8226698
0.1155055 -0.14154713 0.79500002 8357514
0.12409226 -0.14164971 0.79533345 8291722
0.13569595 -0.14279009 0.79318619 8225930
0.14514208 -0.14297305 0.79428589 8160135
0.15400457 -0.14362724 0.79429406 8094342
0.16477278 -0.14180747 0.79500002 7435641
-0.41082636 -0.13237791 0.79699999 9541273
-0.40522817 -0.13423607 0.79478562 9540762
-0.39528996 -0.13167323 0.79119992 9606042
-0.26505128 -0.13214807 0.79171431 9475994
-0.25606045 -0.13443443 0.79286522 9212823
-0.24561648 -0.13703613 0.79374987 9081237
-0.23530871 -0.13707934 0.79399997 9081495
-0.22492236 -0.13707931 0.79399997 8949909
-0.21483926 -0.13727355 0.79512501 8818836
-0.20461579 -0.13754883 0.79612023 8753044
-0.19520876 -0.13797751 0.79506922 8753043
-0.18507898 -0.13778548 0.79434383 8818835
-0.17498103 -0.13801818 0.79568774 8818835
-0.1649033 -0.13782518 0.79772019 8884371
-0.15486026 -0.13769594 0.79757148 8950421
-0.14504223 -0.13766201 0.7973752 9147543
-0.13797921 -0.13776989 0.79799998 9278871
-0.10405354 -0.13842316 0.79800004 8950421
-0.094919704 -0.13842316 0.79800004 9016214
-0.081117183 -0.1382497 0.79700005 9016214
-0.074624993 -0.13829304 0.79724997 8950421
-0.064897619 -0.13839838 0.79785717 8884628
-0.055053215 -0.13824971 0.79699999 8884628
-0.044627618 -0.13824973 0.79699999 8884628
-0.034823567 -0.13812578 0.79628575 8884628
-0.024822131 -0.13851206 0.79508698 8753042
-0.014598902 -0.13837923 0.79399997 8818835
-0.0048617045 -0.13837923 0.79399991 8687249
0.0044427281 -0.13881259 0.79399991 8884627
0.015261836 -0.13902922 0.79399997 8621456
0.024999034 -0.13902922 0.79400003 8555663
0.035505801 -0.13870642 0.79510516 8555663
0.044049047 -0.13816713 0.79580003 8555663
0.055499461 -0.13900734 0.79387498 8424077
0.064960003 -0.13723624 0.79552633 8424077
0.074464336 -0.13761531 0.79579431 8358284
0.084420376 -0.13884696 0.79575002 8424077
0.094695643 -0.13872783 0.79600006 8226698
0.10588562 -0.13904549 0.79533339 8160905
0.11472555 -0.13920432 0.79500002 8291978
0.12616186 -0.13795657 0.79547834 8291978
0.13494702 -0.13709529 0.79676485 8357514
0.14255999 -0.13907638 0.79800004 8225928
0.15567328 -0.1398551 0.79500002 8160135
0.1628229 -0.1398551 0.79500002 8094084
-0.41082636 -0.12976822 0.79700005 9541275
-0.40561357 -0.12976824 0.79699999 9475482
-0.39398903 -0.12916817 0.7906667 9540761
-0.38977942 -0.12862848 0.79000002 9409943
0.06471137 -0.13250199 0.79999983 8424077
0.1276236 -0.044119745 0.42866343 986890
0.13492483 -0.044435337 0.42841095 921096
0.14082395 -0.043160681 0.42899993 921097
0.12833075 -0.038448185 0.42866662 2301720
0.13478881 -0.038440578 0.42827126 1381390
0.14082395 -0.038595363 0.42899996 1184268
0.1290323 -0.061056823 0.43900001 658183
0.13474038 -0.060880661 0.43773335 658183
0.14218466 -0.060848206 0.4375 658183
0.1185827 -0.051818259 0.43771431 855560
0.12533124 -0.054119553 0.4353928 723975
0.13479353 -0.054959264 0.43324199 658183
0.14495479 -0.05483925 0.43488511 723976
0.15488276 -0.052342612 0.43684617 790025
0.12312716 -0.04562144 0.43145019 921096
0.13482425 -0.049597204 0.42999998 723975
0.14525162 -0.04533558 0.43114546 855305
0.15524802 -0.044695351 0.4342224 855562
0.16101375 -0.04303332 0.43286666 1710872
0.12449238 -0.034714226 0.4331097 1972753
0.1349728 -0.033421181 0.43234378 2170390
0.14528179 -0.034756754 0.43310636 1512976
0.15519553 -0.034721795 0.43417934 1118735
0.16137204 -0.035700638 0.43267739 3619128
0.12548244 -0.02848414 0.43810517 2170133
0.13504322 -0.027956203 0.43811202 2564890
0.14515918 -0.028207816 0.43722549 2236182
0.15588503 -0.027754338 0.43714464 1644820
0.16145615 -0.026629036 0.43732145 2829355
0.16553257 -0.084024556 0.44842866 6182727
0.12820432 -0.070848621 0.44866669 526595
0.13564803 -0.073358692 0.44808623 526340
0.144987 -0.073738053 0.44802475 592390
0.15445383 -0.07230328 0.44857162 658183
0.16555998 -0.073354229 0.44900012 1316114
0.17124981 -0.070166171 0.44900003 1052941
0.12513132 -0.064311258 0.44543293 723976
0.13487926 -0.065947182 0.44310817 658183
0.14520909 -0.06547226 0.44321823 723976
0.1549201 -0.065032035 0.44588354 724490
0.16509192 -0.065061554 0.44854444 1579285
0.17124981 -0.068695977 0.44900003 1118734
0.1225188 -0.058212042 0.44164863 789512
0.1555569 -0.057429485 0.44194523 789769
0.16431208 -0.057536144 0.44636354 1776406
0.12525949 -0.024710933 0.44421548 3222563
0.13495326 -0.02289065 0.44392952 3156514
0.1449105 -0.023398118 0.4410004 3156514
0.15460747 -0.023120856 0.44091848 2565149
0.16214934 -0.022247033 0.44069228 4869194
0.13777663 -0.017323285 0.44792977 3748393
0.14484282 -0.015400876 0.44533306 3946029
0.15433885 -0.015733087 0.44350916 4341304
0.16158234 -0.018599592 0.44245452 5592662
0.14591277 -0.0091297077 0.44785717 6052440
0.13777509 -0.11334362 0.45844057 658183
0.14437436 -0.11370358 0.45812401 723976
0.15323786 -0.1122774 0.45866662 921097
0.1283126 -0.10146383 0.45866674 526597
0.13536958 -0.10458327 0.45579007 592390
0.14481632 -0.10469711 0.4535099 658184
0.15490524 -0.10490423 0.45584863 921098
0.1637686 -0.10333893 0.45730394 3159349
0.17314106 -0.10175998 0.45887497 5265241
0.13499865 -0.094851784 0.45211136 526597
0.14510474 -0.094648279 0.4503071 592647
0.15491746 -0.094879858 0.4517217 527112
0.16450195 -0.09498103 0.45282397 2631976
0.1725015 -0.097416446 0.45566669 2961969
0.1349491 -0.085060656 0.45142657 394753
0.14514209 -0.085057221 0.44999996 460802
0.15505297 -0.085034937 0.45001081 592646
0.163093 -0.085170291 0.45007262 2302750
0.13420506 -0.077657573 0.45044622 394753
0.14514211 -0.078794919 0.45000014 395011
0.15569839 -0.077448994 0.45000044 526597
0.16276997 -0.076363616 0.45000029 987148
0.13425994 -0.013959907 0.45331901 3946286
0.1411851 -0.011177109 0.45254552 4340532
