# .PCD v0.7 - Point Cloud Data file format
VERSION 0.7
FIELDS x y z rgb
SIZE 4 4 4 4
TYPE F F F U
COUNT 1 1 1 1
WIDTH 329
HEIGHT 1
VIEWPOINT 0 0 0 1 0 0 0
POINTS 329
DATA ascii
0.28774345 -0.22082207 0.59300005 9743285
0.29474932 -0.22026348 0.59150004 9743542
0.30261889 -0.22035658 0.59175003 9678262
0.28795084 -0.21794428 0.59385723 9743541
0.29543221 -0.21766074 0.59433335 9809333
0.30478311 -0.2171685 0.59603524 9743797
0.31210193 -0.21572429 0.59795457 9677747
0.28845039 -0.21248922 0.60028583 9743285
0.2951231 -0.21331443 0.60135067 9677749
0.30550855 -0.21297269 0.60229266 9678005
0.31276286 -0.21177797 0.60147065 9611956
0.28907281 -0.2073845 0.60450006 9874870
0.29436874 -0.20724119 0.60544777 9743540
0.30533323 -0.2086643 0.60694587 9809590
0.31246936 -0.20895196 0.60764706 9611956
0.3169584 -0.21051939 0.611 9677749
0.29806417 -0.20299059 0.61183995 9743285
0.30490586 -0.20516436 0.61295021 9743541
0.31486776 -0.20659107 0.61421049 9743540
0.3217313 -0.20633779 0.61900002 9678004
0.29892135 -0.19981515 0.61500001 9809335
0.30093256 -0.19981515 0.61500001 9809335
0.30739626 -0.20207383 0.6226002 9480370
0.31460765 -0.20237176 0.62337917 9743284
0.32434154 -0.20469509 0.6255883 9677747
0.3351098 -0.21014021 0.634 9612210
0.30648255 -0.20141406 0.63300002 9611957
0.3149263 -0.2008485 0.63220006 9677747
0.32645348 -0.20211262 0.63163322 9677746
0.33330908 -0.20363644 0.63409525 9677747
0.30662763 -0.19651158 0.63461906 9677491
0.31481278 -0.19780415 0.63550818 9677748
0.32470182 -0.19858772 0.63552928 9809075
0.33200797 -0.19893169 0.63800001 9743282
0.33744827 -0.20064366 0.64080006 9874868
0.31529266 -0.19332387 0.64377582 9940404
0.32474202 -0.19380578 0.64368469 9743539
0.33482289 -0.19504386 0.64497519 9743283
0.34130815 -0.19569646 0.64645451 9743282
0.31827071 -0.19166668 0.65240008 9809075
0.32383722 -0.19072403 0.65385723 9808821
0.33642173 -0.19109425 0.65248001 9743283
0.34301662 -0.19157748 0.65300006 9743282
0.31938577 -0.18950823 0.65600002 9809075
0.32615453 -0.18889616 0.65490907 9874612
0.33451042 -0.18834881 0.6572684 9677490
0.34310713 -0.18850343 0.65785724 9743283
0.31948066 -0.19127576 0.66400003 9809075
0.32359353 -0.1905643 0.66272742 9809075
0.31948066 -0.18855803 0.66400003 9809075
0.32468638 -0.18715173 0.66484928 9809075
0.33474845 -0.18496566 0.66558993 9743284
0.34527558 -0.18529093 0.66530275 9743027
0.35171825 -0.18401471 0.66775 9743282
0.32648873 -0.18302841 0.67266655 9743282
0.33432052 -0.18200824 0.67373151 9677747
0.34503916 -0.18124729 0.67524987 9743539
0.35381618 -0.1811742 0.67566657 9809075
0.33835548 -0.17892197 0.67900002 9743283
0.34446189 -0.17892194 0.67899996 9677489
0.35445416 -0.17892194 0.67899996 9743283
0.32973924 -0.1810942 0.68300003 9612210
0.33332664 -0.18079434 0.68138468 9677747
0.32973924 -0.17941689 0.68300003 9809075
0.33550912 -0.17787284 0.68504262 9809075
0.34478 -0.17745242 0.68435723 9743282
0.35482746 -0.17743988 0.68400002 9808819
0.36097881 -0.17743991 0.68400002 9874612
0.32776818 -0.18147652 0.69300002 9612212
0.33137453 -0.18128008 0.69224995 9743539
0.32738316 -0.17729886 0.69566679 9677748
0.33490932 -0.17553702 0.69421083 9743539
0.34499663 -0.17383772 0.69289809 9809076
0.35490113 -0.17398566 0.6925711 9809075
0.36348426 -0.17377943 0.69307345 9874868
0.32706344 -0.17384964 0.70477784 9678003
0.33407864 -0.17275387 0.70401913 9809332
0.3447592 -0.17124514 0.70222211 9809332
0.35498211 -0.17119096 0.7019999 9809075
0.3653129 -0.17119095 0.7019999 9874868
0.37105218 -0.17119098 0.70200002 10072247
0.33884805 -0.16925696 0.70690006 9678259
0.34531236 -0.16890742 0.70688885 9678003
0.35508376 -0.16883442 0.70636368 9874868
0.36504984 -0.16881466 0.70649999 9940661
0.37237665 -0.16866408 0.70753855 10006454
0.32952815 -0.17061046 0.71400005 9743796
0.33389917 -0.17060296 0.71275002 9809589
0.32952815 -0.16827254 0.71400005 9743796
0.33566594 -0.16724898 0.71502119 9809589
0.34518677 -0.16616704 0.71500003 9678003
0.35521281 -0.16593465 0.71400023 9743539
0.36481211 -0.16625935 0.71400005 9874868
0.37389249 -0.16651914 0.71399999 10006454
0.3317757 -0.17003663 0.72400004 10006711
0.33556303 -0.16493832 0.72542888 9875382
0.34481576 -0.1624195 0.72484231 9809589
0.35486302 -0.16241626 0.72306114 9678003
0.36543739 -0.16279845 0.72206634 9940660
0.37503412 -0.16261506 0.72320348 10006453
0.381513 -0.16218306 0.72438467 9874868
0.35762143 -0.15980893 0.72600001 9809075
0.36415049 -0.15980893 0.72600001 9940404
0.3825506 -0.15980893 0.72600001 9874868
0.22770403 -0.17622074 0.73699993 10335415
0.2352315 -0.17556174 0.73623484 11058367
0.24223527 -0.17372359 0.73769587 10203829
0.23654301 -0.16932489 0.73900002 10006709
0.24258485 -0.1693249 0.73899996 10400694
0.32834005 -0.1627809 0.73238468 10269625
0.33407557 -0.16322798 0.73327094 10006711
0.34535968 -0.16036822 0.73400009 9875382
0.3551299 -0.16017401 0.73311114 9743796
0.36526451 -0.16014974 0.73300004 9874868
0.37485293 -0.16014974 0.73300004 10071734
0.3820442 -0.16014974 0.73300004 10006454
0.32929739 -0.15921377 0.73700005 10335672
0.33566839 -0.15902665 0.73644447 10072503
0.34535962 -0.15856567 0.73400015 9941175
0.35599434 -0.15793552 0.73458332 9743796
0.36488336 -0.15731256 0.7366001 9809075
0.37488267 -0.15726435 0.73676747 10006198
0.38467994 -0.15742193 0.73629284 10006454
0.39060906 -0.15662111 0.73900002 9940661
0.22779717 -0.17183448 0.74200004 10467257
0.23173091 -0.1716029 0.74100012 11781574
0.24892923 -0.17100303 0.74900001 11320250
0.22779718 -0.16940488 0.74200004 10204345
0.23173088 -0.16917658 0.741 10401210
0.24647979 -0.16855052 0.74899989 11451837
0.32965925 -0.15749401 0.74600005 10598073
0.33559573 -0.15700187 0.74523085 10400438
0.34484127 -0.15519185 0.74326903 10006710
0.35461757 -0.15475467 0.74312234 9940661
0.36483774 -0.15353425 0.74508852 9940661
0.37502578 -0.15367532 0.74525023 9940661
0.38516045 -0.15383002 0.74600023 10072247
0.39247933 -0.15444064 0.74600011 9940661
0.23716921 -0.17057014 0.7525 10072245
0.24222605 -0.17023014 0.75100011 10072245
0.23716922 -0.16872217 0.75250006 10072502
0.24222605 -0.16838585 0.75099999 10466744
0.33537316 -0.15289381 0.75435281 10466746
0.34509218 -0.15160453 0.75363165 10138040
0.35535213 -0.15149949 0.75262511 9940661
0.36489552 -0.15137371 0.75199991 9940661
0.37473246 -0.15137371 0.75199991 9940661
0.38501757 -0.15154985 0.75287515 10072247
0.3945497 -0.15191855 0.75266671 9940661
0.34585133 -0.14980036 0.75337505 10072504
0.35528618 -0.14876953 0.75724149 10072247
0.36465064 -0.14870699 0.75725019 9940661
0.37455618 -0.14870699 0.75725019 9940661
0.38432157 -0.14882357 0.75711542 10138040
0.39369664 -0.14888877 0.75668424 9940918
0.40118036 -0.14843358 0.75900006 10071991
0.33639964 -0.15039928 0.7626667 10467003
0.34046757 -0.15026781 0.76200002 10401210
0.33726251 -0.14715962 0.76533324 10466746
0.34495181 -0.14682782 0.76393503 10138296
0.35489991 -0.14628935 0.7656787 10006711
0.36542627 -0.14604023 0.76600003 9940661
0.37544632 -0.14604023 0.76600003 10006454
0.38560814 -0.14655803 0.76480013 10138296
0.39596781 -0.14703597 0.7636925 9940917
0.40273765 -0.14594495 0.76550001 10203574
0.24426445 -0.14014322 0.77500004 10664634
0.33640173 -0.14284553 0.77299994 10467001
0.34475052 -0.14231268 0.77300006 10269623
0.35529646 -0.14240034 0.77390927 9941175
0.36497378 -0.14294541 0.77300024 10006453
0.37508544 -0.14294536 0.77300024 10072246
0.38484594 -0.143297 0.77300018 10072247
0.39524403 -0.14355497 0.77287507 10006453
0.40501109 -0.1425638 0.77439982 10203575
0.41122308 -0.14132258 0.77800006 10269368
0.23979323 -0.13130125 0.77900004 9613493
0.24374259 -0.13458526 0.7745806 10204598
0.35570592 -0.13895349 0.7790001 9941175
0.40635684 -0.13885155 0.77842855 10269624
0.41122308 -0.13877511 0.77800006 10335417
0.23979323 -0.12938818 0.77900004 9613493
0.24311195 -0.12920919 0.77445465 9744564
0.2480319 -0.14590418 0.78900003 10467257
0.25239846 -0.14277419 0.78899997 11912128
0.34836227 -0.14080867 0.78171438 10204088
0.35169864 -0.14104736 0.78000003 10138553
0.36456823 -0.14109257 0.78025007 9875380
0.37465584 -0.14104736 0.78000009 10006452
0.38562429 -0.14130276 0.78000009 10072245
0.39506227 -0.14168586 0.77999997 10006453
0.40143925 -0.14168587 0.78000003 10006452
0.25319239 -0.13879961 0.78900003 11846592
0.34878927 -0.13896182 0.78120005 10006967
0.35541165 -0.13784976 0.78710514 9941174
0.36560142 -0.13815875 0.7848109 9941173
0.37512901 -0.13794833 0.78420031 9940917
0.38499346 -0.13801232 0.78397322 10138039
0.39483514 -0.13793525 0.78412521 10203574
0.4044874 -0.13719454 0.78483862 10466744
0.41369984 -0.13614027 0.78559995 10532538
0.23882563 -0.12700027 0.78000003 9416114
0.24376014 -0.12428921 0.78452963 9679028
0.25255057 -0.12105343 0.78700012 9810357
0.24464564 -0.11875261 0.78700012 9744821
0.25255057 -0.11912075 0.787 9810357
0.25383422 -0.14627405 0.79099995 12372162
0.34618539 -0.14153826 0.79063159 10204088
0.3511036 -0.14003104 0.79600006 10072759
0.24930732 -0.1300863 0.79100001 9810357
0.25609392 -0.13474366 0.79283345 10992828
0.26140735 -0.132594 0.79699999 10533306
0.34915125 -0.13807623 0.79600006 10072759
0.35399836 -0.13707931 0.79442102 10072759
0.36427584 -0.13538603 0.79518193 9941173
0.3751384 -0.13306592 0.79646647 10006709
0.38495564 -0.13326176 0.79507118 10138037
0.39517757 -0.13335787 0.79447335 10401208
0.40513143 -0.13321599 0.79425013 10532537
0.41402444 -0.13259916 0.79250026 10729403
0.24921726 -0.1248623 0.79071432 9679284
0.25595194 -0.12535806 0.79323101 9810357
0.26139501 -0.12577553 0.79584628 9942198
0.37333032 -0.12878574 0.79900002 9940659
0.38509643 -0.12987678 0.79766667 10138549
0.39520183 -0.12976824 0.79699999 10401209
0.40529287 -0.12986998 0.79762501 10466744
0.41589415 -0.12789129 0.79670018 10729660
0.42073724 -0.12699901 0.79600006 10795196
0.24899215 -0.11957482 0.79000002 9679284
0.25869179 -0.11693045 0.79400009 9744821
0.26128834 -0.11693044 0.79400003 9810357
0.065184124 0.058784194 0.31641445 4005639
0.092053413 0.059730809 0.31850001 8230291
0.059740987 0.063082419 0.317 6368265
0.065157942 0.065053612 0.31703362 4005383
0.078950033 0.061321214 0.31199998 7756352
0.085800186 0.064081497 0.31665459 6249549
0.091703705 0.062735721 0.3179552 7966862
0.066156805 0.075268827 0.31716621 4004870
0.071108826 0.07733833 0.31799999 3413505
0.089607887 0.068656482 0.32000002 4868668
0.092805177 0.068116769 0.32094425 5925476
0.08962547 0.071235947 0.32100001 8423551
0.095916554 0.074947901 0.32555133 5989982
0.10174651 0.076917857 0.32727006 6123112
0.097062133 0.081004545 0.32813048 6584178
0.10174567 0.081893928 0.32800004 4804935
0.078021921 0.06440784 0.33900008 12414232
0.088133603 0.07466317 0.33866662 10120259
0.092249617 0.07881014 0.33524463 9140317
0.089674287 0.083585806 0.33800003 9724213
0.091883153 0.082715295 0.33617568 8808779
0.078498587 0.066640608 0.34000009 12414234
0.082742661 0.067431338 0.34067816 10447933
0.07863465 0.074926578 0.34039536 10441742
0.084798068 0.075263329 0.34156376 10840885
0.090470195 0.075674325 0.34100005 10251331
0.078878641 0.082916625 0.34185719 6761990
0.084946156 0.085040919 0.34126845 10707492
0.090311006 0.088915378 0.34040001 9657641
0.09020488 0.09048181 0.34 9657126
-0.10824172 -0.031166714 0.39699996 2830374
-0.1123928 -0.036562968 0.40518281 2238236
0.10765713 0.026400965 0.4050189 9350062
0.1128855 0.025819967 0.40579176 9415854
0.11520084 0.028741779 0.41260001 9153197
0.11494189 0.032328121 0.41721538 8758696
-0.00085886678 0.0079788603 0.42199999 11037488
0.0021835149 0.008104478 0.42199996 10971697
-0.00085886678 0.011778778 0.42199996 11696188
0.0028735397 0.012344053 0.42200038 11366965
0.11506158 0.036811493 0.42176241 8561060
0.12255955 0.035343982 0.42200053 8692646
0.11664034 0.041697521 0.42200014 8495010
0.12152193 0.041536577 0.42199999 8560803
0.10923163 0.0094289556 0.47800002 10779483
0.11460966 0.0086807152 0.4782308 10714722
0.12177609 0.0085617173 0.47852385 8294544
0.1149422 0.015328884 0.47775903 10582878
0.12236463 0.015036964 0.47802591 8097165
-0.084063701 -0.050746366 0.4885 9388032
-0.084523752 -0.047996353 0.48863661 9453824
0.10929623 0.0063250023 0.48000002 10845019
0.11419056 0.0061975922 0.48022214 10911843
0.12092815 0.0098818783 0.48100004 7104608
0.12092815 0.010669366 0.48100004 7038557
-0.21642101 -0.09145958 0.49900004 3618343
-0.2033395 -0.094787449 0.4979997 1840136
-0.21489443 -0.087442584 0.49778131 3813919
-0.20370714 -0.088044465 0.49816677 2434586
-0.080718011 -0.050501071 0.49000001 9453056
-0.07850419 -0.050624747 0.49120006 9519104
-0.083265379 -0.043433513 0.49289119 9256448
-0.077569231 -0.046008047 0.49611405 9782016
-0.082753681 -0.039050911 0.49742866 8994048
-0.21032524 -0.1004386 0.50100005 1708811
-0.20909645 -0.1004386 0.50100005 2036231
-0.21394184 -0.094714455 0.50023252 2697501
-0.20800278 -0.094252549 0.50006562 1842194
-0.21358448 -0.085503399 0.5 3814178
-0.20745274 -0.088368475 0.5 2829599
-0.075111225 -0.042695262 0.50186062 11164425
0.11871896 -0.041193374 0.514 10780516
0.12460215 -0.04119337 0.514 8290425
0.11871894 -0.037827309 0.514 10780514
0.12439203 -0.038037691 0.514 8486518
0.21843715 -0.13086826 0.72700006 9612979
0.22081465 -0.13086826 0.72700006 9744565
0.21837166 -0.12420698 0.72560006 9481907
0.22143555 -0.12511411 0.72647369 9613492
0.21933854 -0.13499373 0.73000002 9744565
0.22241446 -0.1347639 0.72999996 9876151
0.22915116 -0.13263161 0.745 9744821
0.23155122 -0.13333166 0.74599999 9876406
0.22839315 -0.12775655 0.74000001 9613491
0.23020814 -0.12775655 0.74000001 9679283
0.23460582 -0.17431295 0.77300006 9941173
0.2452918 -0.17106368 0.77425003 10467000
0.25294879 -0.17099299 0.7725001 12175042
0.24529181 -0.16916227 0.77425009 10663864
0.25398737 -0.16921993 0.77219999 12832200
0.24104738 -0.17575161 0.78100008 10006966
0.2394482 -0.17332733 0.79333329 9678772
0.24425903 -0.17234942 0.79427278 9875637
0.25468922 -0.17156935 0.79510003 11386813
0.26225594 -0.17131142 0.79300004 13095115
0.25618523 -0.16963856 0.79428577 11846592
0.26225594 -0.16936399 0.79300004 13292492
