# .PCD v0.7 - Point Cloud Data file format
VERSION 0.7
FIELDS x y z rgb
SIZE 4 4 4 4
TYPE F F F U
COUNT 1 1 1 1
WIDTH 1129
HEIGHT 1
VIEWPOINT 0 0 0 1 0 0 0
POINTS 1129
DATA ascii
0.28195131 -0.22013418 0.58600003 9539730
0.29589888 -0.22192362 0.58820003 10064789
0.3016935 -0.22222544 0.58900005 10262421
-0.23060995 -0.21587788 0.58100003 7961217
-0.22823493 -0.21587788 0.58100003 8092805
-0.12292702 -0.2166955 0.58223528 8948109
-0.11606336 -0.21746913 0.58451587 8553865
-0.10508019 -0.21897304 0.58475018 8356486
-0.095033377 -0.2190107 0.58458072 8291465
-0.084390819 -0.21872531 0.58542109 8225674
-0.074720003 -0.21824236 0.58657992 8094345
-0.064932287 -0.21831495 0.5863241 8028553
-0.055774279 -0.21861489 0.58595365 7962760
-0.044548605 -0.21843658 0.58666062 8028295
-0.034810163 -0.21921754 0.58739996 8225929
-0.0267972 -0.21937613 0.58860004 8028038
0.18964128 -0.21832189 0.58500004 9013131
0.19203264 -0.2183219 0.58500004 8619146
0.20879674 -0.21888697 0.58866674 8225415
0.21547769 -0.21808159 0.58662522 8291209
0.22520514 -0.21790037 0.58628058 8357003
0.23496941 -0.21763283 0.58682203 8619147
0.24487202 -0.21785644 0.58592325 8947598
0.25465319 -0.21746787 0.5850296 8947855
0.26480517 -0.21725045 0.58452392 9079439
0.27503908 -0.21781424 0.58557153 9276817
0.28170961 -0.21901171 0.58525002 9539730
-0.020977678 -0.22163679 0.59000009 8093570
-0.01507243 -0.22176291 0.59385711 10854301
-0.0095124971 -0.22133416 0.597 9341066
0.19794065 -0.22109933 0.59050006 8291208
0.20380357 -0.22115381 0.59000009 8290951
0.28773895 -0.22096342 0.59600002 9474193
0.29554644 -0.22172946 0.59588903 9867667
0.30472019 -0.22172572 0.59450865 10393494
0.3110629 -0.22162235 0.59125 10853273
-0.12388808 -0.21579318 0.59442872 8948365
-0.1140095 -0.21521395 0.5937013 8553606
-0.1049466 -0.21571642 0.59337521 8553865
-0.09498702 -0.21551344 0.59311998 8225673
-0.085355304 -0.21544106 0.59348971 8094344
-0.074853778 -0.21464401 0.59494579 8225673
-0.064896129 -0.21484554 0.59528577 8028808
-0.054628763 -0.21546157 0.59416473 8094088
-0.04529031 -0.21565396 0.59416676 8094088
-0.034999251 -0.21603826 0.59348398 8160137
-0.024742849 -0.21660082 0.59412122 8028551
-0.015753014 -0.21747585 0.59654105 8487814
-0.0095363986 -0.21845955 0.59850001 9604747
0.19678049 -0.21610704 0.5937888 8225416
0.20496386 -0.21578243 0.59337175 8356744
0.21516244 -0.2148314 0.59380758 8291208
0.22511956 -0.21465516 0.59589452 8356744
0.23486894 -0.2145806 0.59609503 8422538
0.24508138 -0.21462615 0.59528333 8750988
0.25541416 -0.2136607 0.59417814 8816781
0.26496208 -0.21281132 0.59243482 8948365
0.2748954 -0.21352908 0.59227353 9211023
0.28432906 -0.21530019 0.59470677 9539216
0.29258975 -0.21690957 0.59855008 9670800
0.30646884 -0.21735331 0.59708589 10656151
0.3126702 -0.21643521 0.5958125 10919065
0.25877088 -0.20986867 0.59775007 8817036
0.26679778 -0.2085869 0.59738249 8948108
0.27415356 -0.20744117 0.59557825 9144974
0.28268114 -0.20916787 0.59520006 9276302
-0.0085935192 -0.22084925 0.60100001 9670284
-0.13063662 -0.21291427 0.60642862 9408143
-0.12541421 -0.21402667 0.60582155 8882571
-0.11569082 -0.21249589 0.60463637 8554120
-0.10541668 -0.21184844 0.60340011 8554377
-0.095124386 -0.21159169 0.6025092 8225673
-0.0849794 -0.21156755 0.60259974 8159880
-0.075126112 -0.2115674 0.60259986 8029064
-0.065073557 -0.21154283 0.60269207 8028808
-0.055023823 -0.2115674 0.60259974 8094344
-0.044892821 -0.21199901 0.60224992 8028551
-0.034712251 -0.21196648 0.60233325 8094344
-0.024887593 -0.21217713 0.60293305 8094600
-0.014502001 -0.21331756 0.60358775 8028293
-0.0056036012 -0.21447295 0.60547006 8618884
0.0026962946 -0.21440326 0.60809088 9408142
0.18660709 -0.21380965 0.60603231 8422280
0.19401139 -0.21292379 0.60298812 8159623
0.20489964 -0.21125205 0.60100019 8225415
0.21517384 -0.21139745 0.60193622 8356744
0.22547053 -0.21182172 0.60411102 8422281
0.23492956 -0.2117971 0.60427564 8422794
0.24488759 -0.21157974 0.60230756 8554123
0.25364 -0.21115915 0.60100019 8685707
0.26263526 -0.21002576 0.60100001 8817036
0.29626414 -0.21389483 0.60094118 10130580
0.30409551 -0.21331362 0.60087991 10590614
0.31382632 -0.21174647 0.60043919 10919063
-0.13070226 -0.20802262 0.60871428 9539728
-0.12872562 -0.20827121 0.60833341 9276814
-0.11435174 -0.2093903 0.60661536 8619911
-0.1031015 -0.2089642 0.6075455 8423049
-0.094917357 -0.20855637 0.60819972 8225671
-0.08510074 -0.20893325 0.60802418 8225672
-0.075052485 -0.2089856 0.6079998 8094601
-0.064988479 -0.2089967 0.60792673 7963528
-0.054921996 -0.2089856 0.60799992 8094600
-0.044980403 -0.2089856 0.6079998 8094601
-0.035038818 -0.2089856 0.60799968 8094344
-0.02509723 -0.20898557 0.6079998 7897477
-0.016155435 -0.20906129 0.60821885 8094086
0.1873394 -0.20969251 0.60860002 8159109
0.19577409 -0.20851655 0.60712498 8159622
0.20482172 -0.20824456 0.60538322 8290951
0.21464202 -0.2080774 0.60636526 8422024
0.2233599 -0.2087567 0.60733342 8357001
0.23702432 -0.20850366 0.60718513 8553610
0.24539575 -0.20685911 0.60717613 8553867
0.25489229 -0.20673937 0.60520685 8619659
0.26483902 -0.20606166 0.60534084 8816780
0.27197477 -0.2046096 0.60521048 8816779
0.29785544 -0.20841846 0.6030001 10524565
0.30496553 -0.20730011 0.60242838 10787222
0.31466249 -0.20628506 0.60357678 11115929
-0.12398867 -0.21141839 0.61085385 8685705
-0.11114058 -0.2105194 0.611 8619655
-0.10647026 -0.21017483 0.61000007 8882827
-0.01121578 -0.21017486 0.61000001 8094342
-0.0044286968 -0.21064423 0.61069238 8159622
0.0058642174 -0.21235035 0.61374414 9013898
0.013924122 -0.21265768 0.61791289 8816518
0.17854556 -0.21195753 0.61300009 9073777
0.1822173 -0.21161801 0.61184621 8092285
-0.12481766 -0.20790915 0.61531276 8883084
-0.11442234 -0.20750751 0.61395228 8751241
-0.10529996 -0.20656596 0.61484617 8554635
-0.094927005 -0.20568185 0.61600012 8423049
-0.084815249 -0.20608975 0.61571425 8488586
-0.074972354 -0.20585968 0.6153031 8095114
-0.065119982 -0.20589805 0.61514115 8029064
-0.055003636 -0.20594643 0.61528587 8094344
-0.045160439 -0.20613489 0.61515385 8094601
-0.034937784 -0.20635502 0.61500037 8094600
-0.025142893 -0.20639905 0.61489499 8159879
-0.015072985 -0.20649999 0.61468756 8225157
-0.0052707447 -0.20731421 0.61487514 8159880
0.0039189099 -0.20775683 0.61646777 8290950
0.0117238 -0.20877165 0.61866665 8487555
0.17908786 -0.20841007 0.61720002 8944247
0.18572506 -0.20689569 0.61495465 8287863
0.19461666 -0.20500523 0.61411375 7830656
0.20476371 -0.20502554 0.61398268 8290951
0.21477684 -0.20518085 0.61449999 8422024
0.22527213 -0.20654252 0.61479992 8357001
0.23437816 -0.2070819 0.61322743 8488074
0.24964671 -0.20384264 0.61500001 8553610
0.25467476 -0.20384264 0.61499989 8553610
0.26516452 -0.20417407 0.61599994 8685196
0.27559978 -0.20458636 0.61699986 8816267
0.017001128 -0.21074499 0.62050003 8947848
0.023878831 -0.21152903 0.62418187 9079174
0.030041149 -0.21020782 0.62800002 8948101
0.16630697 -0.21311964 0.62819231 8947077
0.17433046 -0.21235634 0.62356246 8815236
-0.13116004 -0.20499693 0.62466669 9342607
-0.1244989 -0.20462272 0.62458324 8882314
-0.11522747 -0.20345901 0.62506932 8817291
-0.10529279 -0.20277022 0.62604851 8357258
-0.094854765 -0.20270845 0.62550014 8160391
-0.084879354 -0.20274666 0.62536836 8422793
-0.075139664 -0.20258503 0.62536848 8160137
-0.065090112 -0.20238438 0.62450027 8028551
-0.055136852 -0.20242245 0.62436861 8094344
-0.044970457 -0.20259672 0.62430793 8094601
-0.034935012 -0.20269592 0.62388581 8225674
-0.02470338 -0.20245393 0.62314272 8160137
-0.015040196 -0.20269133 0.62387294 8225672
-0.0053541232 -0.20289148 0.62448573 8159881
0.0051246998 -0.20377293 0.62449294 8159880
0.015305509 -0.20553714 0.62432331 8225156
0.023722718 -0.2065129 0.62641937 8619397
0.030041149 -0.20866559 0.62800002 9013894
0.16731289 -0.20809717 0.62878263 8356229
0.17606546 -0.20624591 0.62620449 8487303
0.18416984 -0.20275478 0.62379235 8748156
0.19484372 -0.20134802 0.62136388 7368561
0.20526332 -0.2016971 0.6212275 8028035
0.21509224 -0.20202185 0.62180018 8291209
0.22502023 -0.20220783 0.62346935 8291463
0.2349373 -0.20391256 0.62437522 8422792
0.24440692 -0.2051549 0.62588257 8619400
0.25762901 -0.2044262 0.62514299 8619403
0.26409695 -0.20322843 0.62212008 8619147
0.27418381 -0.20450051 0.62440002 8685196
0.32825851 -0.20412615 0.6220001 11509658
0.18576057 -0.1995372 0.62677783 8487045
0.19566596 -0.19866486 0.62697679 6644065
0.20491992 -0.19862857 0.62695724 8093571
0.21497555 -0.19870412 0.62739992 8291208
0.22302699 -0.19884722 0.62766671 8291463
0.231306 -0.19992627 0.62800002 8423048
0.1184453 -0.21014021 0.634 11510167
0.12583418 -0.21047802 0.63614285 11641754
0.13512181 -0.21097226 0.63558835 12169124
0.14503869 -0.21089177 0.63470012 9670540
0.15513715 -0.21197486 0.63145465 8815748
0.16147861 -0.21242443 0.63000005 8947077
-0.13493375 -0.2022468 0.63258326 9474192
-0.1262919 -0.20162573 0.63176733 8948362
-0.11532427 -0.20079842 0.63399994 8685450
-0.10454687 -0.2009726 0.63300008 8357258
-0.094959155 -0.20099986 0.63300008 8160137
-0.085126296 -0.20099986 0.63300008 8094344
-0.074742205 -0.20090461 0.63270009 8028551
-0.064840481 -0.20068237 0.63200003 8028550
-0.055023175 -0.20068236 0.63200003 8029321
-0.045134321 -0.20088135 0.63100004 8029064
-0.035332534 -0.20088133 0.63100004 8160137
-0.024975225 -0.20056298 0.63000005 8225930
-0.014673906 -0.20056298 0.63000005 8160137
-0.0048881075 -0.20063372 0.63022226 8094344
0.005680196 -0.2012687 0.63100016 8159879
0.015719205 -0.20126066 0.63169247 8094342
0.026260426 -0.20275591 0.63189989 8225413
0.035119928 -0.20461404 0.63413292 8619397
0.044469886 -0.20495208 0.63567555 8947590
0.053405218 -0.20508681 0.63815385 9144711
0.10616497 -0.20564671 0.63730502 10853779
0.11520711 -0.20462607 0.63661098 10591123
0.1247117 -0.20448025 0.63677567 10196884
0.13516739 -0.20503421 0.63652122 9210763
0.14501606 -0.20515713 0.6363672 8684934
0.15503193 -0.2050371 0.63428968 8487814
0.16455671 -0.20405611 0.63240987 8356486
0.17395256 -0.2021556 0.63148922 8421767
0.18110918 -0.20016499 0.63200003 8750219
0.23688763 -0.20136273 0.63128579 8357000
0.24429682 -0.20198897 0.63343501 8422534
0.26596618 -0.20358598 0.63421631 8619403
0.27447221 -0.20215195 0.63401693 8553867
0.28353709 -0.20381683 0.63373691 8750731
-0.13558738 -0.19797099 0.63499999 9343120
-0.12479459 -0.19853969 0.63736373 8817033
-0.11523271 -0.19859636 0.63694018 8554378
-0.10496788 -0.1983297 0.6358726 8620426
-0.095101953 -0.19827712 0.63612515 8423050
-0.084872767 -0.19848961 0.63652956 8028808
-0.074793309 -0.19853289 0.63658696 7963015
-0.065071955 -0.1984023 0.63602144 8029064
-0.054960787 -0.1987578 0.63564843 8095113
-0.04503287 -0.19869196 0.63412505 7963528
-0.03516297 -0.19856453 0.63329816 8160137
-0.025094153 -0.1984041 0.6329999 8291721
-0.014743784 -0.19840401 0.6329999 8160135
-0.004928499 -0.19755945 0.63530552 8094599
0.004941362 -0.19762088 0.63549984 8094342
0.014113907 -0.19791563 0.635019 8028550
0.024587713 -0.19853978 0.6354863 8094342
0.03471034 -0.19880982 0.63828003 8028549
0.04101583 -0.19872043 0.63900006 8094342
0.11706581 -0.19834681 0.639 8948362
0.12495798 -0.19781657 0.63889742 8882570
0.13460813 -0.19944157 0.63805896 8882314
0.14630802 -0.19839452 0.63851529 8553350
0.15513238 -0.19782269 0.63779998 8553863
0.16495475 -0.19762647 0.63702202 8290950
0.17490752 -0.19778693 0.63615263 8356488
0.18510777 -0.1973872 0.63376397 8421767
0.1946509 -0.1956941 0.63635492 8224130
0.20503438 -0.19549517 0.63672733 7369078
0.21475795 -0.19549976 0.63689047 8291208
0.22491965 -0.19683246 0.63463628 8291464
0.23462582 -0.19786759 0.6347692 8488586
0.24320613 -0.19882558 0.6376667 8422536
0.27505821 -0.19915344 0.63537508 8553864
0.045789193 -0.20112698 0.64000005 8159364
0.056629144 -0.20264412 0.64127284 8750983
0.06504789 -0.20396447 0.64271146 9342346
0.074898757 -0.2045722 0.64312512 9342089
0.084931605 -0.20423435 0.6432001 9342088
0.095298953 -0.2041931 0.6419028 9932424
0.10348668 -0.20267363 0.64071053 9736327
0.11101698 -0.20017892 0.64200002 9737615
0.24905953 -0.20017892 0.64200002 8357001
0.25591144 -0.20251131 0.64433336 8619400
0.26485446 -0.20249368 0.64358211 8553865
0.27173439 -0.20025687 0.64225 8685450
0.28709981 -0.201464 0.64117652 8750986
0.29468322 -0.20328505 0.64548594 8947851
-0.13352877 -0.19684751 0.64280015 9014413
-0.12527488 -0.19707341 0.6437273 8751754
-0.11415679 -0.19592394 0.64575022 8357514
-0.10478512 -0.19551839 0.64572245 8160393
-0.094980769 -0.19549522 0.64536852 8094600
-0.084929168 -0.19532895 0.64536828 7963528
-0.074852511 -0.1952887 0.64468396 7963271
-0.064874895 -0.19525559 0.64421046 7963271
-0.054941669 -0.19526365 0.643143 7963271
-0.04492959 -0.19516231 0.64280939 8094344
-0.034940906 -0.1951551 0.64278567 8160137
-0.024959344 -0.1951768 0.64285713 8225929
-0.015095986 -0.19525068 0.64279419 8094342
-0.0050184368 -0.19321421 0.6468572 8225928
0.0050296704 -0.19321415 0.64685684 8028550
0.015376632 -0.19414021 0.64519721 8028549
0.025027847 -0.19456241 0.64433324 7962757
0.034907572 -0.19486475 0.64492309 8028293
0.045227937 -0.19687271 0.64378947 8093829
0.054783504 -0.19700633 0.64496905 8094085
0.06526918 -0.19567293 0.64676917 8094084
0.075034089 -0.19530827 0.64713764 8291461
0.085053608 -0.19551677 0.64716834 8422278
0.095133662 -0.19539344 0.64713448 8749699
0.10522058 -0.19523083 0.64460552 8881023
0.11449655 -0.19444261 0.6412167 8751498
0.12560365 -0.19334905 0.63999987 9013643
0.13490984 -0.19455643 0.64079952 8948107
0.14466241 -0.19386844 0.6419614 8685191
0.15509522 -0.19308056 0.64338595 8619655
0.16472219 -0.19294743 0.64420831 8553863
0.17473476 -0.19295445 0.64423722 8488072
0.18481183 -0.19279014 0.64375997 8356486
0.19504532 -0.191873 0.64612788 8356229
0.20508206 -0.19193177 0.64587528 8487815
0.21520592 -0.19192721 0.64608359 8290951
0.22532861 -0.19278382 0.64492089 8422279
0.23458733 -0.19418833 0.64355379 8488072
0.24486253 -0.19579858 0.6442498 8422280
0.25434911 -0.19780417 0.64678377 8553610
0.2660915 -0.19825858 0.64686483 8488072
0.27560335 -0.19693254 0.64431226 8619913
0.28466243 -0.19673502 0.64488226 8882571
0.29351372 -0.19851346 0.64719993 8947852
0.10649983 -0.18889709 0.64741182 8815747
0.11315574 -0.18901636 0.64431578 9014155
0.13621105 -0.18809156 0.64200014 8948107
0.14503358 -0.18679819 0.64511794 8948362
0.1541242 -0.18657726 0.64782763 9013643
0.16450293 -0.18931895 0.648 8685192
0.1748382 -0.18961111 0.64900011 8357255
0.1849196 -0.18961111 0.64900011 8356485
0.19500099 -0.18961111 0.64900011 8356485
0.2050824 -0.18961111 0.64900011 8553608
0.2151638 -0.18961111 0.64900011 8291463
0.22524516 -0.18961111 0.64900011 8422278
0.23055115 -0.18961112 0.64900005 8357255
0.30409655 -0.20213817 0.65310019 9145229
0.31504324 -0.20187321 0.65499997 9867407
0.32246268 -0.20224291 0.65900004 10064788
0.34651765 -0.2031153 0.65815794 11378842
-0.140884 -0.19738778 0.65900004 9211791
-0.13469981 -0.19487563 0.65560406 8817549
-0.12532963 -0.19420175 0.65375006 8554376
-0.11607695 -0.19348633 0.65358335 8423306
-0.10511507 -0.1920798 0.65537935 8226187
-0.094854958 -0.19199441 0.65563166 8029321
-0.08511126 -0.19209015 0.65473497 7963271
-0.074902117 -0.19216807 0.65387505 8160136
-0.064916506 -0.19200711 0.65355569 8029321
-0.055032432 -0.19181308 0.65312803 8028551
-0.044869844 -0.19175173 0.65245843 8225929
-0.034909263 -0.19155017 0.65199977 8094601
-0.025091404 -0.19151941 0.6521275 8160136
-0.014818835 -0.19168341 0.6518001 8225671
-0.0050738519 -0.19053656 0.65400016 8159879
0.0050852094 -0.19053657 0.65400016 8028550
0.015543696 -0.19098625 0.65400016 8160135
0.024868643 -0.19107191 0.6540001 7896965
0.035655215 -0.19118243 0.65408325 7962499
0.045058366 -0.1918951 0.65335923 8028036
0.054795451 -0.19198416 0.65261883 8028036
0.063226968 -0.19157733 0.65109086 8028291
0.075201169 -0.19096746 0.65000004 8356997
0.08616329 -0.19084789 0.65050006 8290951
0.095041066 -0.19079345 0.65122229 8487813
0.10139636 -0.19072835 0.65100002 8941930
0.17885862 -0.19000119 0.65400004 8357255
0.18527487 -0.19000119 0.65400004 8356742
0.19489925 -0.19000119 0.65400004 8356485
0.20505831 -0.1900012 0.6540001 8422278
0.21521734 -0.19000119 0.65400004 8291206
0.22484173 -0.19000119 0.65400004 8422535
0.23529245 -0.19099502 0.65155989 8422535
0.24536793 -0.19136548 0.65200031 8488071
0.25541115 -0.19319795 0.65329689 8553864
0.2649568 -0.19396514 0.65420824 8488328
0.27440861 -0.19284384 0.65370959 8554121
0.28515184 -0.19228888 0.65360421 8619657
0.29535487 -0.19408059 0.65376943 8882315
0.3043685 -0.19601899 0.65661037 9079438
0.31461483 -0.19940679 0.65500003 9539213
-0.10521993 -0.18910448 0.65833336 8095114
-0.094943821 -0.18900873 0.65800005 8029321
-0.084138915 -0.18922354 0.65730768 7963528
-0.074925333 -0.18979713 0.65700001 8160391
-0.065214485 -0.18966873 0.65655559 8160393
-0.054967366 -0.18950821 0.65600008 8094344
-0.04474872 -0.18937983 0.65555561 8094343
-0.035069887 -0.18921936 0.65500003 8029321
-0.024895292 -0.18921936 0.65500009 8160649
-0.014720698 -0.18921936 0.65500003 8094857
-0.0050738519 -0.18893048 0.65400004 8094600
0.0050852089 -0.18893048 0.6540001 7831942
0.016664049 -0.18848459 0.65712523 8094342
0.025011238 -0.18839544 0.65775013 7962756
0.03441713 -0.18834677 0.65809107 8028549
0.044964183 -0.18810289 0.65860015 8028293
0.055433657 -0.18803237 0.6576001 7962500
0.064418495 -0.18771312 0.65501654 8028292
0.075201169 -0.1893712 0.64999992 8291205
0.084914207 -0.18796444 0.65140009 8488072
0.095678277 -0.1863146 0.6539855 8355971
0.10376172 -0.18497929 0.65339142 8024172
0.14945081 -0.18464756 0.65400004 9539728
0.15663739 -0.18425725 0.65177274 9211278
0.16441038 -0.18584998 0.65332317 8817292
0.17441221 -0.18706729 0.65517741 8423048
0.185137 -0.18715625 0.65744847 8356999
0.19517423 -0.18719755 0.65733361 8290950
0.20483519 -0.18751152 0.65700012 8356231
0.21491155 -0.18764095 0.65700006 8356487
0.22490589 -0.18760948 0.65712506 8488072
0.23455869 -0.18812701 0.65568101 8356744
0.24433339 -0.18880807 0.6549474 8356743
0.25445941 -0.18922786 0.65712494 8553608
0.26526177 -0.18923216 0.65877777 8488072
0.27489501 -0.18915512 0.65673685 8553864
0.2845737 -0.18900321 0.65611118 8488072
0.2930156 -0.18925929 0.65700001 8619401
0.098420873 -0.17984226 0.65600002 8092543
0.10271145 -0.17984225 0.65600008 6381919
0.32821429 -0.20075682 0.66300005 9801872
0.33644626 -0.20156945 0.66238469 10195859
0.34404162 -0.2021095 0.66192305 10590356
-0.14430211 -0.19372617 0.66543752 9014668
-0.13509354 -0.19201723 0.66481245 8620683
-0.12551716 -0.19106093 0.66303128 8357512
-0.11562812 -0.19119221 0.6609 8291722
-0.080907829 -0.19015773 0.66200006 7963528
-0.074954323 -0.19015774 0.66200012 8094855
-0.067377128 -0.19015773 0.66200006 8029321
0.30691937 -0.19244778 0.66150004 9013645
0.31497574 -0.1947006 0.66252786 9079951
0.3249805 -0.19492103 0.66426325 9342352
0.33497575 -0.19484538 0.66488534 9670544
0.34519705 -0.19498785 0.6650607 9933202
0.35129869 -0.19300686 0.66586673 9736337
-0.13309808 -0.18931699 0.66860008 8489354
-0.12457857 -0.188944 0.66554552 8489098
-0.11485248 -0.18903282 0.66388243 8160650
-0.10408186 -0.1879406 0.66538453 8095115
-0.09493579 -0.18734343 0.66549963 7897737
-0.085107319 -0.18726461 0.66522223 7963529
-0.074982703 -0.18715486 0.66452628 7963529
-0.064655028 -0.18715699 0.66369498 8029065
-0.05506891 -0.18737876 0.66369838 8160136
-0.045285027 -0.18729807 0.66341293 8094856
-0.035172835 -0.18708026 0.66298538 8095114
-0.024917819 -0.18763205 0.66236871 8160906
-0.014889257 -0.18758358 0.66250014 8094857
-0.0051397956 -0.18758357 0.66250014 8094599
0.0048959116 -0.18773533 0.66273707 7963271
0.014949604 -0.18690628 0.66443765 8094342
0.025343962 -0.18544266 0.66649985 7962756
0.035152286 -0.18544272 0.66650021 7962756
0.04540424 -0.18459551 0.66466665 8028292
0.055121358 -0.18347476 0.66341317 8028291
0.062291082 -0.18281823 0.66537505 8028549
0.16774721 -0.18257681 0.66152161 9080206
0.17521179 -0.18271069 0.66450006 8751499
0.18496953 -0.18323003 0.66638875 8423048
0.19480801 -0.18326034 0.66650015 8225413
0.20511292 -0.18355821 0.66617781 8225669
0.21500799 -0.18370651 0.66614252 8291206
0.22504689 -0.18364316 0.66627276 8356743
0.23552726 -0.18414433 0.66599989 8225414
0.24522898 -0.18497002 0.66477436 8291207
0.25500771 -0.1850452 0.66545749 8422278
0.26446724 -0.18647882 0.66454571 8487816
0.27553952 -0.18612519 0.6640836 8488328
0.28488618 -0.18538536 0.66437018 8554120
0.2950128 -0.18564637 0.66483146 8554120
0.30400637 -0.18610984 0.66547549 8947592
0.31467873 -0.18750755 0.66706127 8947852
0.3252039 -0.18759491 0.66840911 9079180
0.33334413 -0.18826444 0.66847622 9276301
0.34543511 -0.18969393 0.6680001 9604753
0.35181257 -0.18959928 0.66766667 9670544
0.048338603 -0.17985113 0.66800004 8094342
0.054776043 -0.17946225 0.66655552 8028550
0.060899664 -0.17985113 0.66800004 8160135
0.16802189 -0.17986128 0.66400003 9342608
-0.15076107 -0.19098711 0.67550004 9079947
-0.14508781 -0.19123909 0.6725238 8883082
-0.13775793 -0.19081032 0.67000002 8686474
-0.15273754 -0.18621588 0.67790496 8752011
-0.14428867 -0.18839423 0.67523527 8751754
-0.13521837 -0.18662126 0.67598498 8488840
-0.12503724 -0.18627694 0.6744312 8423818
-0.11466695 -0.18607225 0.6727221 8095114
-0.10490023 -0.18528561 0.67362493 8029321
-0.095069997 -0.18362419 0.67623556 7963528
-0.085053705 -0.18360306 0.67547387 8029321
-0.074826047 -0.18352321 0.67550015 7963785
-0.064827219 -0.18335617 0.67488933 7897735
-0.054846361 -0.18319108 0.67427802 8029064
-0.044853255 -0.18290386 0.67322206 7963528
-0.034907259 -0.18270816 0.67249984 8029321
-0.024997337 -0.18316045 0.67214262 8095114
-0.015115992 -0.18329325 0.67263466 8029321
-0.0052260794 -0.18359952 0.67376208 8029064
0.004692662 -0.18378183 0.67442876 8029064
0.014387329 -0.18355083 0.67398351 7897477
0.024406856 -0.18277149 0.67503566 7831683
0.035443079 -0.18253829 0.67508817 7962756
0.043428816 -0.18149264 0.67269224 8028549
0.1684446 -0.1803896 0.67000002 9474193
0.1759205 -0.1806719 0.67230767 9079694
0.18521622 -0.18070604 0.67322224 8357255
0.19505924 -0.18064637 0.6730001 8291206
0.20496321 -0.18064637 0.6730001 8290948
0.21515173 -0.18088502 0.6738888 8422535
0.22510512 -0.18091485 0.67399991 8225669
0.23502384 -0.18091482 0.67399991 8356486
0.24494256 -0.18091485 0.67399991 8356999
0.25486124 -0.18091483 0.67399991 8290950
0.2658059 -0.1823471 0.67236358 8422278
0.27411637 -0.18225721 0.67257136 8422535
0.28477204 -0.18143521 0.67417842 8356999
0.29452717 -0.18124731 0.67525005 8423048
0.30554757 -0.18184876 0.67399997 8685449
0.31494913 -0.18250373 0.67399973 8750986
0.32485262 -0.182795 0.67429239 8947852
0.3358781 -0.18447158 0.67276889 9210766
0.34528658 -0.18487789 0.67239976 9341838
0.35330585 -0.18437526 0.67311573 9407630
0.038530357 -0.17865846 0.67800003 7963526
0.045293089 -0.17749287 0.67654562 8029062
0.051375065 -0.1787277 0.67199999 8094342
0.16867191 -0.17762259 0.67200005 9999762
0.17483453 -0.17771584 0.67528009 9606034
0.18542978 -0.17789586 0.67722231 8423048
0.19519709 -0.17826 0.67678374 8291206
0.20527382 -0.178326 0.67674994 8225156
0.21530411 -0.17838514 0.67697227 8750728
0.22510846 -0.17860983 0.67763627 8291206
0.23466608 -0.17858952 0.67775023 8356485
0.24463995 -0.17858951 0.67775023 8356742
0.25461385 -0.17858954 0.67775005 8290950
0.26458773 -0.17858955 0.67774999 8356742
0.27456161 -0.17858951 0.67775023 8422278
0.28422749 -0.17852856 0.67809111 8554121
0.2945005 -0.17836615 0.67900008 8488328
0.30449277 -0.17836612 0.67900008 8488585
0.3139804 -0.17861879 0.67899996 8554122
0.32392222 -0.17892195 0.67899996 8750730
-0.15237726 -0.18321598 0.68370575 8751754
-0.14513756 -0.18368521 0.68342453 8620426
-0.13479176 -0.18218032 0.68499994 8423304
-0.12496965 -0.18231051 0.68408871 8488843
-0.11548695 -0.1822059 0.68299991 8160906
-0.10596864 -0.18204629 0.68186057 8029064
-0.09479703 -0.18138883 0.68411112 8094601
-0.084715024 -0.18135935 0.68400002 8029320
-0.07456556 -0.18115312 0.68322217 8029321
-0.065024711 -0.1810279 0.68275005 7897735
-0.055473212 -0.18082902 0.6820001 7897735
-0.045430109 -0.18079957 0.681889 7897735
-0.035348456 -0.18056393 0.68099999 8029320
-0.025326746 -0.18056393 0.68099999 8095114
-0.015324284 -0.18079954 0.681889 7963528
-0.0052927122 -0.18094687 0.68244439 7963528
0.0047508026 -0.18106472 0.68288875 7963528
0.014772912 -0.18074068 0.68166667 7897733
0.024953118 -0.18107849 0.68099999 7897477
0.033640519 -0.18141206 0.67999995 7897733
0.32940277 -0.18085541 0.68000001 8947852
0.33496225 -0.18085541 0.67999995 9013645
0.34496921 -0.18085541 0.67999995 9144972
0.35497618 -0.18085541 0.67999995 9210765
-0.15214612 -0.17960395 0.68800002 8817035
-0.1448804 -0.17966194 0.68822229 8619657
-0.13470909 -0.17960395 0.68800008 8358025
-0.12505753 -0.17947343 0.68750006 8225929
-0.11541662 -0.1793429 0.68700004 8094857
-0.10435963 -0.17932162 0.68520004 8094599
-0.094797015 -0.17914879 0.68411118 8094600
-0.084715031 -0.17911969 0.68400002 8094855
-0.074399129 -0.17845987 0.68728179 8029321
-0.06499967 -0.17824611 0.68731809 7963528
-0.054963663 -0.17816231 0.68679994 8029320
-0.045079611 -0.1784714 0.68639469 7963784
-0.034739532 -0.17838654 0.6855002 8029576
-0.025080541 -0.17840178 0.68536383 8095113
-0.015423138 -0.1785962 0.68630558 8029320
-0.0053264 -0.17867592 0.686611 8029321
0.0047780205 -0.17870508 0.68672228 8029320
0.014863493 -0.1784735 0.68583339 8028805
0.024935238 -0.1783217 0.68525004 8028805
0.035120342 -0.17781004 0.68389374 7963269
0.042569403 -0.17527576 0.68650001 7963526
0.17569983 -0.17558445 0.68550014 10197397
0.18482628 -0.17520024 0.68400002 8423048
0.19506495 -0.17436203 0.68579948 8356742
0.20488884 -0.17442407 0.68538052 8291206
0.21505535 -0.17448825 0.68563443 8291205
0.22508343 -0.17501204 0.68609983 8422278
0.23431025 -0.17584485 0.68565708 8356486
0.24501991 -0.17657781 0.68500018 8422278
0.25454047 -0.17657785 0.68500012 8290949
0.26554352 -0.17555045 0.68593723 8487558
0.27529907 -0.17527249 0.68649971 8422278
0.28540167 -0.17527249 0.68649971 8685193
0.29523844 -0.17521083 0.68664688 8422279
0.30475032 -0.17533414 0.68635273 8619657
0.31476247 -0.17544547 0.68636817 8619658
0.32482645 -0.17584802 0.68595344 8684937
0.33501303 -0.1766094 0.68517292 8947852
0.34517071 -0.17672953 0.68553162 8948108
0.35518485 -0.17673601 0.68566656 9013645
0.36222249 -0.17558265 0.68790919 9144972
-0.14552951 -0.18003406 0.69400001 8423048
-0.15234281 -0.17672135 0.69439983 8620169
-0.1448921 -0.17744456 0.69600028 8489098
-0.13456593 -0.17769678 0.69600004 8358025
-0.12489253 -0.17769682 0.6960001 8029321
-0.11513817 -0.17756927 0.69550014 8029321
-0.10497759 -0.17728654 0.69400007 8029064
-0.095184505 -0.17687577 0.69317645 7963528
-0.085260682 -0.17693084 0.69299978 8094856
-0.075549006 -0.17615141 0.6941818 7963528
-0.064391606 -0.17451082 0.69646668 8029320
-0.055210151 -0.17439418 0.69605905 8422790
-0.045084931 -0.1746701 0.6957382 8094857
-0.034945905 -0.17463319 0.69514334 8226186
-0.024723375 -0.17469291 0.69538152 8029321
-0.015070029 -0.17481259 0.69585741 8029063
-0.0054017161 -0.17495954 0.69644469 8029320
0.0046666851 -0.17536785 0.69663179 8094598
0.015088005 -0.17546031 0.69616699 8028806
0.02530783 -0.17529219 0.69550014 7962757
0.035140876 -0.17460936 0.69432008 7897477
0.041847035 -0.17172137 0.69440007 7897220
0.17706254 -0.17393434 0.69428587 9868949
0.18480511 -0.17275107 0.6944446 8620170
0.19379582 -0.17163928 0.69477773 8356998
0.20455009 -0.17151245 0.69400012 8225669
0.21495001 -0.17137457 0.69442862 8290949
0.22531669 -0.17181294 0.69385707 8290949
0.23563465 -0.17270431 0.6925 8290948
0.24525701 -0.1729959 0.69314277 8422277
0.25535628 -0.17303693 0.69331133 8356484
0.26446781 -0.17230317 0.69400001 8356486
0.27499264 -0.17191479 0.69499987 8356485
0.28511947 -0.17208059 0.69400018 8422278
0.29533252 -0.17208058 0.69400018 8422278
0.30497813 -0.17208059 0.69400018 8488071
0.31499004 -0.17194518 0.69464529 8553864
0.32485038 -0.1718183 0.69524997 8553609
0.33508176 -0.17181829 0.69525009 8750474
0.34517825 -0.17184079 0.69514298 8816523
0.35482654 -0.17179444 0.69536382 8882059
0.36386198 -0.17176585 0.6955002 8947595
0.038984265 -0.16915806 0.69600004 7831942
0.041829392 -0.16915806 0.69600004 7897477
0.19774143 -0.16980816 0.69400001 8291462
0.20455009 -0.16980816 0.69400001 8225669
0.21457399 -0.16980816 0.69400001 8290949
0.31746203 -0.16931498 0.699 8619657
0.32489121 -0.16931494 0.69900012 8488071
0.33517784 -0.16931494 0.69900012 8684938
0.34489295 -0.16931495 0.69900006 8816523
0.35460806 -0.16931503 0.69900012 8882060
0.36489472 -0.16931503 0.69900012 8947852
-0.15273298 -0.17207831 0.70184606 8357768
-0.14488314 -0.17376317 0.70405424 8357769
-0.13515575 -0.17423101 0.70499998 8160648
-0.12559453 -0.17433286 0.70499998 8029321
-0.11487523 -0.17464279 0.70433348 8029321
-0.10409395 -0.17350766 0.70515364 8029321
-0.095089041 -0.17312792 0.70482349 8226441
-0.084950112 -0.17294785 0.70450008 8094857
-0.074744262 -0.17259368 0.70347059 8029322
-0.066031329 -0.17212819 0.70308709 8095114
-0.054960415 -0.17167872 0.70400023 8095114
-0.045175795 -0.17167872 0.70400017 8095114
-0.035353348 -0.17148903 0.70322227 8095114
-0.025002066 -0.17148906 0.70322227 8095114
-0.014670813 -0.17167872 0.70400023 8029321
-0.0048861955 -0.17167872 0.70400017 8094856
0.0053300951 -0.17211096 0.70400023 7963269
0.01563392 -0.17204723 0.70462507 7897734
0.024732782 -0.17206503 0.70457155 7897478
0.034759264 -0.17198502 0.70425016 7831685
0.040814076 -0.17091544 0.708 7831940
0.17673005 -0.17355964 0.70528567 9934229
0.18382677 -0.17097136 0.70492303 8882829
0.19572461 -0.17083411 0.70408338 8357255
0.205201 -0.17101052 0.70600003 8291462
0.2137014 -0.17054698 0.70307148 8291205
0.22491963 -0.17034627 0.70088899 8356485
0.23469584 -0.17037329 0.70100009 8159876
0.24478745 -0.1706163 0.70200008 8290692
0.25499544 -0.17053528 0.70166677 8356484
0.2650708 -0.17037329 0.70100009 8356231
0.27584535 -0.17048806 0.70100009 8356230
0.28538463 -0.17075747 0.70022219 8422022
0.29502437 -0.17070326 0.69999993 8422278
0.30475336 -0.17070326 0.69999993 8356485
0.31276551 -0.17070322 0.69999999 8553864
-0.1537528 -0.16916169 0.70360005 8357768
-0.14977747 -0.16927677 0.70600003 8161159
-0.10282527 -0.16990018 0.70860004 8029321
-0.098685369 -0.16975631 0.708 8029321
-0.071001403 -0.16825494 0.70900005 8095112
-0.065163746 -0.16884445 0.7075758 8095113
-0.055206671 -0.16897506 0.70716685 8160906
-0.044966269 -0.16904926 0.70768577 8160650
-0.035118509 -0.16897985 0.70696974 8095113
-0.025145514 -0.16898763 0.70722216 8029321
-0.015555265 -0.16916968 0.70749992 8095114
-0.0048861955 -0.16994983 0.70400006 8095113
0.0048984205 -0.16994983 0.70400006 7963268
0.012380773 -0.16994983 0.70400006 8226183
0.02734548 -0.16994983 0.70400006 8028551
0.037919898 -0.16859718 0.70800012 7765891
0.040814076 -0.16859718 0.708 7897733
0.1789028 -0.1689378 0.70700002 9080208
0.18488327 -0.16919255 0.70475012 8751243
0.19401732 -0.16914581 0.70353335 8488071
0.205201 -0.16927677 0.70599997 8291205
0.21510723 -0.16865785 0.70162505 8356486
0.22619168 -0.16824481 0.70413315 8225158
0.23507704 -0.16788965 0.70539552 8290949
0.24499069 -0.16806133 0.7054286 8290948
0.25496376 -0.16797192 0.70540011 8356484
0.26504484 -0.16778167 0.70460033 8356486
0.27508226 -0.16782308 0.70442879 8356230
0.28485349 -0.1676437 0.70402241 8291207
0.29480007 -0.16750316 0.70376754 8291207
0.30458808 -0.16743709 0.70337218 8487816
0.31472707 -0.16751041 0.70439017 8487817
0.32511628 -0.16717383 0.70444465 8422280
0.33492771 -0.1674141 0.70400029 8619400
0.34511968 -0.16767441 0.70412523 8882059
0.35489756 -0.16767111 0.7041114 8816523
0.36520255 -0.16764463 0.70400023 8947852
0.37153375 -0.16764466 0.70400006 9013645
-0.1530697 -0.17050223 0.71600002 8291721
-0.14491825 -0.17127396 0.71191639 8226439
-0.13498586 -0.1714088 0.71269703 8160906
-0.12485252 -0.17165288 0.71234226 8029321
-0.11521553 -0.17173839 0.71142489 8029321
-0.10703602 -0.17133333 0.71168 8029321
-0.094117828 -0.17092092 0.71285725 8160392
-0.085183769 -0.17053555 0.71125001 8029321
-0.076433279 -0.17047562 0.71100003 8029322
-0.010732549 -0.17023584 0.71000004 8095114
-0.0049278392 -0.17023586 0.71000004 8160906
0.004940168 -0.17023586 0.71000004 8028548
0.01482024 -0.17035574 0.7105 8094598
0.024693675 -0.17036906 0.71055555 7897222
0.032802779 -0.17081706 0.71000004 7896965
0.17692353 -0.17212248 0.71300012 9605781
-0.15306972 -0.16874389 0.71600002 8226440
-0.14507678 -0.16897956 0.71700001 8160648
-0.13456573 -0.16903195 0.71722227 8226698
-0.12462667 -0.16906792 0.7173751 7964041
-0.11504103 -0.16877337 0.71612495 8029321
-0.10391059 -0.16778915 0.71611106 8029321
-0.095043808 -0.16743372 0.71543747 7963785
-0.084710099 -0.16636832 0.71464962 8095114
-0.075551346 -0.16521806 0.7141304 8095113
-0.064911053 -0.16397043 0.71360677 8226441
-0.054832589 -0.16359596 0.71283334 8226698
-0.045246366 -0.16376284 0.71424311 8291978
-0.03480874 -0.16457336 0.71573031 8225928
-0.024882209 -0.16470115 0.71628582 8160649
-0.015519941 -0.16556621 0.71586287 8095113
-0.0049493038 -0.16750072 0.71322501 8095113
0.0049652173 -0.16758816 0.71359974 8029063
0.014895323 -0.16770566 0.7141 8028807
0.024829149 -0.16778088 0.71442199 7831942
0.035222061 -0.16686015 0.71467412 7766148
0.040922347 -0.16479003 0.71666664 7831940
0.17835808 -0.16856529 0.71525007 9080206
0.18600218 -0.16675049 0.7134583 8751499
0.19505127 -0.16618851 0.71261859 8422535
0.20521028 -0.16646862 0.71381801 8291462
0.21496528 -0.16657031 0.71476245 8356742
0.22443306 -0.16625191 0.71455526 8356486
0.23529118 -0.1649964 0.71500009 8290950
0.24522865 -0.16558172 0.71500009 8422278
0.25484821 -0.1653759 0.71411121 8290949
0.26573756 -0.16477127 0.71427274 8291206
0.27532038 -0.16410393 0.71573323 8356486
0.28475699 -0.16393583 0.71505904 8290694
0.29491127 -0.16381848 0.71500003 8356741
0.30514675 -0.16366543 0.71433336 8488072
0.31533998 -0.16350041 0.71361083 8422279
0.3249813 -0.16336024 0.71299958 8356743
0.33506146 -0.1635386 0.71284163 8619144
0.34509194 -0.16392176 0.71239954 8750729
0.35499752 -0.16376565 0.71274519 8750987
0.36493072 -0.16405326 0.71294707 8751244
0.373909 -0.16374551 0.71408486 8882061
-0.05187194 -0.15841477 0.71700001 8358284
-0.045503158 -0.15869884 0.71828568 8292235
-0.16092113 -0.17027149 0.72500002 8357768
-0.15914291 -0.17027149 0.72500002 8357768
0.17642617 -0.1715869 0.72599989 9540499
-0.16097254 -0.16536897 0.72718191 8423304
-0.15539318 -0.16624452 0.72687507 8291720
-0.14631924 -0.16651015 0.72572112 8291719
-0.13549581 -0.16678125 0.72533345 8160649
-0.12419576 -0.16704099 0.7251668 7963784
-0.11458925 -0.16596721 0.72437507 7964041
-0.10514071 -0.1639688 0.72500038 7964041
-0.095188439 -0.16264072 0.72386044 8029577
-0.086088501 -0.16202019 0.72151607 8095113
-0.076329358 -0.16106915 0.72100008 8095112
-0.040904693 -0.16084576 0.72000003 8620686
-0.034179043 -0.16080855 0.72146159 8291977
-0.025088165 -0.16075717 0.7222501 8291721
-0.013672543 -0.16255105 0.7228235 7963270
-0.0048950319 -0.16318591 0.72461134 7963527
0.0050475202 -0.16323774 0.72542876 7897733
0.015049093 -0.16377527 0.72555113 7831684
0.02428613 -0.16451435 0.72449982 7831684
0.034041509 -0.16529533 0.72400004 7897476
0.17779747 -0.16783667 0.72731251 9080207
0.18392645 -0.1642261 0.72453344 8751756
0.19545083 -0.16209246 0.7248292 8357255
0.20512071 -0.16202936 0.72532481 8357255
0.2148402 -0.16197854 0.72547597 8291462
0.22470273 -0.16191536 0.72444212 8291205
0.23484531 -0.16167335 0.7237336 8225669
0.24528572 -0.16200258 0.72256005 8291205
0.255135 -0.1622906 0.72119987 8356741
0.26437816 -0.16218452 0.721421 8225670
0.27487695 -0.1619498 0.72395241 8422277
0.28472483 -0.16131979 0.72477782 8225413
0.29507685 -0.16114667 0.72400004 8290949
0.30503288 -0.16109101 0.72375 8423048
0.31476671 -0.16092409 0.72299987 8422534
0.32505515 -0.160751 0.72222233 8357255
0.33499122 -0.16070154 0.72200006 8422278
0.34502599 -0.16070153 0.72200006 8619657
0.35506079 -0.16070153 0.72200006 8619146
0.36509556 -0.16070153 0.72200006 8684939
0.37513837 -0.16074748 0.72187501 8816012
0.3810949 -0.16106915 0.72100002 8881805
-0.093645707 -0.15770759 0.72727996 8160905
-0.08541391 -0.1574399 0.72460538 8226698
-0.076115958 -0.15788256 0.72212517 8226697
-0.041432623 -0.15719266 0.72150004 8423563
-0.034751207 -0.1568877 0.72383022 8357769
-0.025870161 -0.15710828 0.72600007 8357769
-0.016626023 -0.15842919 0.72650003 8094856
-0.0086002015 -0.15980893 0.72600001 8160905
0.19579388 -0.15927579 0.72900003 8291462
0.20473397 -0.15927579 0.72900003 8357255
0.21479927 -0.15922724 0.72877783 8357255
0.22468948 -0.15905732 0.7280001 8291462
0.23469853 -0.1589845 0.72766674 8225669
0.24581553 -0.15897551 0.72663635 8290949
0.25493687 -0.15921465 0.72599989 8290949
0.26502731 -0.15921465 0.72599989 8356743
0.27492985 -0.15910497 0.72549999 8422279
0.28472483 -0.1589466 0.72477782 8290949
0.29455894 -0.15885013 0.72400004 8290950
0.30503285 -0.15931368 0.72375 8357000
0.3165682 -0.15800163 0.72713792 8291207
0.32483894 -0.15796313 0.7273159 8422793
0.33484304 -0.15810844 0.72662872 8422535
0.34494695 -0.15815537 0.72636384 8619913
0.35504127 -0.1581084 0.72662872 8554122
0.36513785 -0.15815537 0.72636372 8684682
0.37535915 -0.15812652 0.72576332 8750475
0.38228488 -0.15788428 0.72614294 8816012
0.17409575 -0.17095029 0.73300004 10000023
-0.15445614 -0.16255522 0.73371881 8226182
-0.14419217 -0.16375063 0.73520005 8489353
-0.1343969 -0.16338219 0.73475003 8029577
-0.12555185 -0.16370444 0.73397875 8095370
-0.11548509 -0.16192503 0.73391443 7964041
-0.1081622 -0.16105071 0.73242855 8029833
-0.0038903495 -0.16025896 0.7335 7963526
0.0051071602 -0.16036822 0.73400009 7897733
0.015598754 -0.16101672 0.73439997 7831940
0.025757656 -0.16228749 0.73341924 7766147
0.034997784 -0.16242199 0.73412251 7831940
0.041712806 -0.16397332 0.73400003 7962756
0.17494887 -0.16648959 0.73593342 9540500
0.18394729 -0.16199872 0.73454851 8751756
0.19069107 -0.16128701 0.73000002 8423048
-0.12052757 -0.15843594 0.73900002 8358286
-0.113668 -0.15747313 0.7369678 8029320
-0.10481589 -0.15498167 0.73426169 8161162
-0.097134739 -0.15544413 0.7312001 8095113
-0.045053747 -0.15829915 0.73000002 8423306
-0.037397236 -0.15513755 0.73200005 8489354
-0.023385331 -0.15337344 0.73284608 8555148
-0.0146914 -0.15550137 0.7337501 8160905
-0.0059087593 -0.15754992 0.73583347 8029320
0.0051071593 -0.15856567 0.73400015 7897733
0.015318087 -0.1586467 0.73437512 7831940
0.025000837 -0.15913275 0.73662519 7897733
0.033974223 -0.15904547 0.73790002 7831940
0.18762466 -0.15825057 0.73566669 8620427
0.19461533 -0.15785658 0.73505569 8488328
0.20521718 -0.15818001 0.73499995 8357255
0.21530056 -0.15808438 0.73455554 8423048
0.2253411 -0.15796481 0.73400003 8291462
0.23490192 -0.1579379 0.73387504 8225669
0.24561273 -0.15703014 0.73484606 8290949
0.25501963 -0.156436 0.73582339 8290949
0.26499352 -0.15643634 0.73482358 8422023
0.27518803 -0.15627433 0.73505908 8356487
0.28505364 -0.15623599 0.73388213 8225414
0.29494694 -0.15615486 0.73399997 8225415
0.30503669 -0.15652022 0.73317724 8159879
0.31434238 -0.15582331 0.73355806 8225415
0.32556742 -0.15466633 0.73500001 8291207
0.33540997 -0.1550779 0.73455548 8553608
0.34535968 -0.15496056 0.73399985 8553864
0.35465071 -0.15514708 0.73399991 8685450
0.3651627 -0.15556143 0.73399997 8488330
0.37523523 -0.15550847 0.73375005 8619402
0.38438728 -0.15345871 0.73613197 8684682
0.39008054 -0.15278444 0.73800009 8815755
-0.1024488 -0.1497567 0.73500001 8095112
-0.14647868 -0.16094202 0.745 8555150
-0.1339228 -0.16121975 0.7462858 7963528
-0.12604284 -0.16071212 0.74300003 8029321
0.041840874 -0.16320854 0.7470001 7897476
0.16909689 -0.1615901 0.74800003 9278357
0.17483649 -0.16212727 0.7430498 9080721
0.1832142 -0.16064109 0.74080002 8752013
-0.14647868 -0.15911245 0.74500006 8620943
-0.13392279 -0.15938704 0.74628574 8029320
-0.12318663 -0.15691365 0.74560004 8095114
-0.11538921 -0.15392017 0.74350011 8029320
-0.012925385 -0.15251704 0.74259996 8292234
-0.0044358606 -0.15475346 0.74400008 8029319
0.0048822379 -0.15571935 0.74288243 7963271
0.01520557 -0.1558373 0.74447072 7831941
0.025012976 -0.15626173 0.74540007 7831942
0.035009686 -0.15778676 0.74450016 7766147
0.16909689 -0.15914086 0.74800003 9015185
0.17609298 -0.1581025 0.74599999 8817806
0.18512945 -0.15541239 0.7448501 8686220
0.19506703 -0.15350084 0.74443746 8488584
0.20499237 -0.15400563 0.74335027 8488584
0.2151759 -0.15372914 0.74320358 8423048
0.22502141 -0.15372239 0.74257183 8357255
0.23513021 -0.15395826 0.74310315 8291462
0.24434556 -0.15343036 0.74436378 8225669
0.25480804 -0.15247972 0.74511462 8291462
0.26499507 -0.15285985 0.74425006 8422535
0.27463958 -0.15280847 0.74400014 8422278
0.28498012 -0.15280849 0.74400002 8356487
0.29532066 -0.15280849 0.74400014 8290951
0.30484632 -0.1527058 0.74350005 8159622
0.3155528 -0.15205769 0.74437845 8225415
0.32479081 -0.15185913 0.74437851 8422022
0.3347815 -0.15197873 0.74268556 8356743
0.34547079 -0.15191671 0.74263865 8553864
0.35546872 -0.15180373 0.74163622 8422792
0.36510313 -0.15219405 0.74131691 8422537
0.37492245 -0.1522295 0.74119985 8553610
0.38391015 -0.15127324 0.7438463 8684939
0.39233947 -0.15067691 0.74400002 8881548
-0.013697962 -0.14874494 0.745 8292491
0.31751308 -0.14893045 0.74900001 8290951
0.3260695 -0.14915596 0.74845463 8422022
0.33482385 -0.14934391 0.74800009 8290952
0.34516799 -0.14932173 0.74788898 8356744
0.35502061 -0.14909434 0.74675006 8422536
0.36503369 -0.14894463 0.74600017 8487816
0.37540197 -0.14894463 0.74600017 8553353
0.38553798 -0.14885585 0.7455557 8619146
0.39203534 -0.14854528 0.74400002 8881805
-0.16204867 -0.1631299 0.75799996 8225928
-0.15445776 -0.16244121 0.7547999 8225928
-0.14284229 -0.16173103 0.75149995 8029576
-0.13652106 -0.1610297 0.75400001 8029320
0.045504976 -0.16210009 0.75609106 7831940
0.1667943 -0.16043597 0.75700003 9409428
-0.13254043 -0.15754415 0.75700003 8029320
-0.12601921 -0.15423544 0.75485718 8029320
-0.11897364 -0.15156004 0.75600004 8292491
-0.010724027 -0.15158509 0.75000006 8226184
-0.0048973789 -0.15159601 0.75217247 8029319
0.0042731785 -0.15192297 0.75342882 7897733
0.014487304 -0.15231772 0.75362492 7897733
0.024996467 -0.15296003 0.75477791 7831940
0.034850065 -0.1543013 0.75431252 7765891
0.043004006 -0.15707392 0.75540018 7897733
0.16679429 -0.15795726 0.75700003 9080721
0.17543061 -0.15460365 0.75390565 8752013
0.18348385 -0.15194012 0.75324011 8620684
0.19473471 -0.1508695 0.75255567 8554634
0.20504524 -0.15075813 0.75199997 8554376
0.21502669 -0.15085837 0.75250006 8423048
0.22501796 -0.1509586 0.75300002 8291462
0.23455608 -0.15075813 0.75199997 8291462
0.24500781 -0.15075813 0.75199997 8225669
0.25533065 -0.15068296 0.751625 8291206
0.26504037 -0.15102409 0.7504667 8422535
0.27501488 -0.15097116 0.75000006 8422279
0.28543884 -0.15097116 0.75000006 8422024
0.29524964 -0.15097114 0.75000006 8225159
0.30506045 -0.15097114 0.75000006 8225415
0.31241846 -0.15097113 0.75000006 8291208
-0.013053305 -0.14719367 0.75187516 8358284
-0.005588572 -0.14825012 0.75666684 8029319
0.0021784513 -0.14843358 0.759 7963526
0.17805564 -0.1493804 0.75750005 8817806
0.18646167 -0.14787477 0.75703442 8554890
0.19505771 -0.14776766 0.75516665 8554634
0.20512059 -0.14764644 0.75500005 8423048
0.21518314 -0.1477733 0.75564992 8488585
0.22534911 -0.14795834 0.75660026 8488071
0.23502889 -0.14782101 0.75590003 8488071
0.24520041 -0.14790063 0.75585735 8356998
0.25514364 -0.14773312 0.75544989 8225671
0.26473486 -0.14757122 0.75462496 8290950
0.2747134 -0.14753692 0.75400001 8356486
0.28505996 -0.14742932 0.75450003 8422023
0.29558331 -0.14772516 0.75556415 8356231
0.30511466 -0.14764723 0.75500017 8356231
0.31479153 -0.14750957 0.75569457 8356487
0.325232 -0.14775996 0.75555557 8290951
0.33548811 -0.14765133 0.75499994 8356487
0.34536433 -0.14765133 0.75499994 8356486
0.35494494 -0.14752911 0.75437492 8422536
0.36481825 -0.14728191 0.7531113 8357001
0.37523079 -0.14726017 0.7530002 8422281
0.38508084 -0.14726017 0.7530002 8553610
0.39318952 -0.14684111 0.75085717 8619147
-0.16258425 -0.16220789 0.76833332 8225928
-0.15617304 -0.16173799 0.76452941 8226185
-0.14459543 -0.16132259 0.76525015 8160905
-0.13780335 -0.16066077 0.7610001 8094855
0.054071803 -0.16236563 0.76158082 7831940
0.0611462 -0.16067174 0.76700002 7897735
0.15834807 -0.16066077 0.7610001 10394782
0.16208106 -0.16066077 0.7610001 10263195
-0.15335751 -0.15879191 0.76100004 8292491
-0.1434882 -0.15881397 0.765625 8095369
-0.13467249 -0.15618841 0.76522231 8095113
-0.12634839 -0.15125382 0.76700002 7964041
0.0071521155 -0.15111768 0.76000005 7897733
0.015341922 -0.15079144 0.76076925 7831940
0.024624825 -0.1509411 0.76225001 7831941
0.034670107 -0.15126285 0.76387501 7766147
0.045710675 -0.15379678 0.76414287 7963013
0.053890511 -0.15720816 0.76602322 7831940
0.0611462 -0.1581603 0.76700002 7963526
0.15727015 -0.15496516 0.7669071 9080464
0.1651182 -0.15389358 0.76459694 9014928
0.17281115 -0.15243985 0.76128578 8817550
-0.12634839 -0.14874238 0.76700014 8029834
-0.010938507 -0.14396358 0.76500005 8160905
-0.0061607724 -0.14476891 0.76472706 8029319
0.0055197105 -0.14688735 0.76391679 7831940
0.014479256 -0.14725769 0.7644884 7831940
0.024790147 -0.14755413 0.76737517 7766148
0.03292188 -0.14809982 0.76695007 7766148
0.042883672 -0.14972432 0.76560003 7831940
0.16617481 -0.14776137 0.76842844 8817804
0.17523001 -0.14600779 0.7652002 8883342
0.18466151 -0.14375801 0.76366681 8752013
0.19498457 -0.14258224 0.76126838 8554634
0.20502372 -0.14274369 0.76146138 8423048
0.21477917 -0.14316414 0.76385319 8488584
0.22375789 -0.14363579 0.76536363 8488584
0.23482062 -0.14457351 0.76487499 8488327
0.24486528 -0.14459711 0.76500005 8422791
0.25487223 -0.14459713 0.76500005 8357255
0.26474789 -0.14452629 0.76462501 8291205
0.27452692 -0.14440815 0.764 8422278
0.28452083 -0.14440817 0.764 8487812
0.29451478 -0.14440818 0.764 8422024
0.30450869 -0.14440815 0.764 8225158
0.31424376 -0.14429003 0.7633751 8224901
0.32525346 -0.14477095 0.76351529 8225415
0.33546525 -0.14491491 0.76337516 8356488
0.3453508 -0.14487329 0.76315641 8422024
0.35631508 -0.14428844 0.76392299 8422278
0.36526984 -0.14332345 0.76494628 8487816
0.37509373 -0.14325321 0.76457149 8422281
0.38492599 -0.14367595 0.76395929 8487817
0.39445451 -0.14357267 0.76435715 8553610
0.40184802 -0.14509521 0.76500005 8553866
0.18674809 -0.13925183 0.76754552 8752013
0.19573779 -0.13845958 0.7647143 8620427
0.20473753 -0.13763379 0.7666555 8554634
0.21357159 -0.13845281 0.76740015 8488841
0.22162603 -0.13905823 0.76900005 8423048
-0.1525155 -0.1621099 0.77570009 8424077
-0.14876717 -0.16065139 0.77600002 8095114
0.066421568 -0.16130021 0.77000004 7897734
-0.15301798 -0.15920597 0.7782501 8292491
-0.14427915 -0.15717553 0.77464515 8095369
-0.13560458 -0.15297319 0.77288902 8029833
0.055766944 -0.15247081 0.77248639 8029062
0.065188207 -0.15501474 0.77440315 7897733
0.074732766 -0.15578131 0.77785712 7897733
0.084968276 -0.15605508 0.77842838 8028805
0.09482532 -0.15767825 0.77888554 8291462
0.13550527 -0.15447028 0.77851611 8883597
0.1447648 -0.15360987 0.7754342 9014926
0.15241534 -0.15285401 0.77256006 9014670
0.1610592 -0.15078035 0.77100003 8817806
-0.13318413 -0.14805014 0.77657157 8095627
-0.12959893 -0.1472434 0.77900004 8029834
-0.011081493 -0.14077762 0.77500004 8160905
-0.0044504646 -0.14198111 0.77322596 8029319
0.0041925306 -0.14279506 0.7738235 7897733
0.014890954 -0.14388004 0.77462488 7831683
0.025034435 -0.1439497 0.77499986 7766148
0.035961442 -0.14566928 0.7734549 7831941
0.045269996 -0.14634192 0.77426797 7897734
0.053722322 -0.14684787 0.77615386 8160649
0.06455978 -0.14894103 0.77787513 8094598
0.070382334 -0.14915645 0.77900004 7831940
0.14578472 -0.14813022 0.77818185 9014926
0.15561895 -0.14603657 0.77543116 8817805
0.16449414 -0.14376615 0.77366668 8817805
0.17441712 -0.14196593 0.77184218 8817805
0.18099511 -0.14113002 0.77000004 8817806
