# .PCD v0.7 - Point Cloud Data file format
VERSION 0.7
FIELDS x y z rgb
SIZE 4 4 4 4
TYPE F F F U
COUNT 1 1 1 1
WIDTH 310
HEIGHT 1
VIEWPOINT 0 0 0 1 0 0 0
POINTS 310
DATA ascii
0.11764228 -0.19444036 0.62394446 10313003
0.12528917 -0.19452749 0.62610656 10510127
0.13163055 -0.19468373 0.62766677 10575920
0.11747651 -0.18722476 0.62367642 10510123
0.12326455 -0.18806483 0.62482601 10510126
0.13149072 -0.18934274 0.62700003 10576177
0.15491687 -0.20181164 0.63814294 10385497
0.13681249 -0.19375393 0.63569725 10641714
0.15579456 -0.1991754 0.6376667 10256745
0.12652212 -0.18828541 0.63033342 10575918
0.13311966 -0.18859638 0.63225007 10575920
0.13768682 -0.20414354 0.64062524 10510130
0.14533257 -0.20439944 0.6433695 10445108
0.15261416 -0.20705567 0.64778274 10053696
0.13959467 -0.19871373 0.64066672 10641714
0.14495072 -0.19568677 0.64188731 10576179
0.15368594 -0.19643256 0.64187491 9928548
0.15550162 -0.2124135 0.65122223 10380347
0.15757084 -0.20852631 0.65000004 10447684
-0.2723031 -0.21108545 0.69900006 10373121
-0.26497191 -0.21070798 0.69775003 11820809
-0.25727791 -0.21048148 0.69700003 12282131
-0.27230313 -0.20650783 0.699 9978880
-0.26488754 -0.20622425 0.69843358 11162886
-0.2569783 -0.20629071 0.69816691 12018192
-0.36198747 -0.21468566 0.70899993 5132102
-0.35908917 -0.21468565 0.70900005 4671551
-0.29356906 -0.20482212 0.70504516 1709321
-0.28501162 -0.20381451 0.70360917 4397315
-0.2757327 -0.20306103 0.70132506 8599553
-0.26505867 -0.20136034 0.70100015 10308101
-0.25401372 -0.20283389 0.7028572 11821069
-0.2489676 -0.20203666 0.70740008 12281619
-0.29126972 -0.19901527 0.70900005 1643788
-0.28375217 -0.19764099 0.70708001 3216130
-0.27541244 -0.19745135 0.70550013 7812103
-0.2652289 -0.19717175 0.70449978 9585926
-0.25547355 -0.19754693 0.70663488 10768388
-0.24837536 -0.19901527 0.70900005 12018960
-0.37017524 -0.21065179 0.71700001 9479597
-0.36543503 -0.21270214 0.71534145 7107698
-0.35471994 -0.2114597 0.71775007 4605757
-0.34496894 -0.2112387 0.71700001 4210741
-0.33645013 -0.2110423 0.71633339 3618863
-0.37074888 -0.2050969 0.71811116 9611182
-0.36544114 -0.20709741 0.71821749 9084065
-0.35473981 -0.20691684 0.71861565 5988183
-0.34432185 -0.20635928 0.71809614 4539450
-0.33537978 -0.20487282 0.71817684 3947827
-0.32554334 -0.20492947 0.7156325 3289382
-0.31508785 -0.20394045 0.71588886 3158309
-0.30550769 -0.20360419 0.71376497 2500123
-0.29721892 -0.20267141 0.71089488 1841678
-0.24476987 -0.20143652 0.71100008 12282133
-0.31290451 -0.19822191 0.71875 3355689
-0.30439061 -0.196569 0.71685714 2697759
-0.2947402 -0.19519474 0.7139852 1973523
-0.28559375 -0.19328707 0.71268398 2036486
-0.27505299 -0.19234473 0.71192294 7156494
-0.2646836 -0.19222528 0.71181458 8732166
-0.25493479 -0.19323018 0.71456915 10176769
-0.24626061 -0.19562872 0.71484298 11755021
-0.29103908 -0.18952219 0.71700001 1907473
-0.28468221 -0.18919177 0.71575004 1970951
-0.27502874 -0.18899356 0.71500009 6434317
-0.26509127 -0.18899356 0.71500009 8207371
-0.25527799 -0.18952221 0.71700007 9454592
-0.24976718 -0.18978654 0.71800005 10834180
-0.37123278 -0.20129408 0.72133332 9611181
-0.36464921 -0.20267512 0.72109091 9545388
-0.35475874 -0.20173934 0.72081232 8425616
-0.34584451 -0.20175633 0.72057152 5263686
-0.33516297 -0.20005749 0.72112507 4210999
-0.32744113 -0.20002282 0.72100002 3355689
-0.31697997 -0.20092417 0.72000003 3355689
-0.37258914 -0.19739744 0.72561914 9742766
-0.36445457 -0.19661929 0.72589469 9742766
-0.3549796 -0.19602035 0.7263732 9742510
-0.34490961 -0.19592158 0.7255156 7502714
-0.33505735 -0.19571002 0.72473437 4802879
-0.32491896 -0.19571967 0.72382861 3553068
-0.31539446 -0.19459262 0.72343564 3487018
-0.30590025 -0.19203775 0.72303116 3157796
-0.29882085 -0.19138956 0.72050011 2499866
-0.24266507 -0.19303933 0.7218864 12084241
-0.23840985 -0.19410367 0.7243638 12347672
-0.31379017 -0.18911359 0.72900003 3683884
-0.30458692 -0.18860917 0.72657895 3157797
-0.2946389 -0.18760028 0.72527272 2236439
-0.28505236 -0.18697762 0.72353321 1905673
-0.27514559 -0.1869579 0.72300005 6500624
-0.26483265 -0.18704747 0.7229411 8208400
-0.25477108 -0.18718947 0.72388923 9519873
-0.24546432 -0.18752031 0.72652286 11558154
-0.23863311 -0.18918987 0.72700006 12347927
-0.37445253 -0.19269821 0.73224396 9676973
-0.36617962 -0.19228946 0.73282343 9743021
-0.35542867 -0.19154708 0.73375005 9808814
-0.34547567 -0.19135134 0.73299986 9347494
-0.33531576 -0.19162397 0.73175007 5724242
-0.32540858 -0.19142756 0.73100001 3881520
-0.31839836 -0.19116573 0.73000002 3618603
-0.23435421 -0.19236423 0.73262966 12545304
-0.22926208 -0.19118892 0.73700005 12479514
-0.37526408 -0.18946674 0.73500007 9676973
-0.36520296 -0.1883608 0.73775017 9874094
-0.35538831 -0.1882731 0.73740619 9873837
-0.34509632 -0.18816426 0.73655885 9741995
-0.33499327 -0.18832456 0.73525012 7173234
-0.32447296 -0.18741412 0.73516333 4144692
-0.31510988 -0.18599737 0.73508775 3749933
-0.30489901 -0.18532331 0.73345286 3289382
-0.29482642 -0.18372978 0.73371422 2171416
-0.28486753 -0.18368131 0.73352933 2168072
-0.27474135 -0.18301044 0.73520017 6764307
-0.26500192 -0.18277873 0.73517644 8473889
-0.2549462 -0.18274863 0.73462492 9651973
-0.24502394 -0.18321425 0.73488921 11623949
-0.23614107 -0.186961 0.73488873 12545303
-0.22926207 -0.18877567 0.73700005 12545561
-0.2800312 -0.17960891 0.73900002 2691331
-0.27509254 -0.17953947 0.73871428 4595204
-0.26517156 -0.17936587 0.73799998 8672301
-0.38220036 -0.18709242 0.74412513 9545387
-0.37458387 -0.18709302 0.74280012 9676973
-0.36413464 -0.1852394 0.74544436 9874094
-0.35511109 -0.18428069 0.74568743 9939630
-0.34471908 -0.18393989 0.74431252 9808300
-0.33487746 -0.18380314 0.74326652 8556946
-0.32599562 -0.18307015 0.74325013 5066051
-0.31458598 -0.18158582 0.74386215 3881519
-0.30506045 -0.18115629 0.74313784 3289640
-0.29481894 -0.18123867 0.74207681 2105622
-0.28490999 -0.18160716 0.7417143 1905415
-0.27780452 -0.18008888 0.74600005 3675906
-0.26063648 -0.18082412 0.74400002 9327394
-0.2548191 -0.18058108 0.74300003 10046215
-0.24405302 -0.18108559 0.74258333 12018705
-0.23445801 -0.18320325 0.74387723 12677143
-0.22850166 -0.18634874 0.74500018 12479770
-0.31304732 -0.17887811 0.74860007 3815983
-0.30454099 -0.17855552 0.74724996 3355689
-0.29469898 -0.17894579 0.74431992 2171672
-0.28473762 -0.17874235 0.74417406 1840136
-0.27471384 -0.17850414 0.74533337 4332548
-0.26446003 -0.17813998 0.74450004 8608051
-0.25493678 -0.17695351 0.74620014 9916946
-0.24589942 -0.17741671 0.74542874 11689998
-0.23681116 -0.17862137 0.74642855 12676890
-0.3907232 -0.18174475 0.75799996 9742767
-0.38452479 -0.18271664 0.75435704 9677230
-0.37506402 -0.182615 0.75393754 9676972
-0.36607933 -0.18242009 0.75296879 9742764
-0.35502109 -0.18122245 0.75325006 9808814
-0.34547234 -0.18105921 0.75257152 9611436
-0.33492568 -0.18068112 0.75100017 8689047
-0.32565445 -0.18078294 0.7507273 5131588
-0.31853721 -0.18105452 0.75000006 4012849
-0.23102632 -0.18118273 0.75199997 12742684
-0.22656992 -0.18361528 0.75502384 11755282
-0.39072317 -0.17926276 0.75800002 9808560
-0.38478398 -0.17909382 0.75728571 9676974
-0.37721092 -0.17902628 0.75700003 9676717
-0.36313215 -0.17972983 0.75475007 9808044
-0.35385329 -0.1781317 0.75735724 9611692
-0.34517014 -0.17783776 0.75694597 9545643
-0.33506581 -0.17810187 0.75520015 9150113
-0.3250283 -0.17799625 0.75435317 5460812
-0.31600168 -0.17781371 0.75450009 3882033
-0.30482498 -0.17708237 0.75399989 3289896
-0.2948167 -0.17699428 0.75362498 2171415
-0.28382212 -0.17607455 0.75500029 1905159
-0.27485123 -0.17537363 0.7546429 3085569
-0.26524484 -0.17488378 0.75306678 6503968
-0.25461376 -0.17360896 0.75499994 9850895
-0.24405786 -0.17464563 0.75416684 12019221
-0.23523846 -0.17649856 0.75494117 12742941
-0.22835808 -0.17802177 0.75799996 12546076
-0.37376758 -0.18035063 0.76260006 9742251
-0.36973462 -0.18020874 0.76200002 9808044
-0.22294578 -0.1822549 0.76315379 10767621
-0.21927869 -0.18302606 0.76600003 10372096
-0.39269587 -0.17823844 0.76425004 9676973
-0.38402578 -0.1772126 0.76525033 9874094
-0.37488055 -0.17657162 0.76573324 9939372
-0.36461529 -0.17681418 0.76323068 9676716
-0.35607311 -0.17566049 0.7641381 9545644
-0.34473878 -0.17478502 0.764 9479851
-0.33493879 -0.17496717 0.76362509 9215651
-0.32435355 -0.17406173 0.76435173 5396046
-0.31517032 -0.17354788 0.76567847 3947826
-0.30511141 -0.17355607 0.76507705 3355689
-0.29501262 -0.17320798 0.7641784 2171672
-0.28598806 -0.17322206 0.76372743 1709322
-0.27489311 -0.17184332 0.76408005 2692099
-0.26457298 -0.1712631 0.76358062 3808774
-0.2548143 -0.17128247 0.76393735 9521161
-0.24503839 -0.1716543 0.76324022 12019477
-0.23430854 -0.1734231 0.7647143 12808732
-0.22543088 -0.1768115 0.76530957 11821589
-0.21909784 -0.17934622 0.76900005 10372096
-0.27002314 -0.1680152 0.76900005 2955527
-0.26518211 -0.16807821 0.76900005 2561027
-0.25556281 -0.16864476 0.76900005 8075012
-0.2499045 -0.16864471 0.76900005 11690000
-0.21728563 -0.18097875 0.77600002 10240768
-0.40166855 -0.17380278 0.77800006 9611438
-0.39513424 -0.17459524 0.77428591 9676974
-0.38592374 -0.17418844 0.77408367 9873837
-0.37450024 -0.17300498 0.77442861 10004648
-0.36451155 -0.17229995 0.77444458 9545901
-0.35494635 -0.17209779 0.77321857 9480108
-0.3446213 -0.17199312 0.77274996 9479851
-0.33463943 -0.17179137 0.77213818 9150886
-0.32632285 -0.17168365 0.77213651 6450021
-0.3149879 -0.17081508 0.77600002 4013619
-0.30479869 -0.17043771 0.77428579 3355688
-0.29405248 -0.1704078 0.77300012 2105623
-0.28552893 -0.17109573 0.77225006 1709063
-0.27556515 -0.17085001 0.7704286 2692356
-0.24464193 -0.17081042 0.77025002 12151319
-0.23375019 -0.17099649 0.77284616 12808990
-0.22399351 -0.17327985 0.77445459 11755026
-0.21776074 -0.17684171 0.77644449 10306048
-0.36269811 -0.16892469 0.77900004 9676974
-0.35523579 -0.16934471 0.77799994 9545644
-0.34505874 -0.16934469 0.77799994 9545901
-0.33445123 -0.16912702 0.77700013 9282729
-0.32480425 -0.16906486 0.77671432 6383971
-0.3149879 -0.1689094 0.77600002 4013618
-0.30479875 -0.16853623 0.77428573 3553067
-0.29360795 -0.16744958 0.77557147 2171671
-0.28472036 -0.16736467 0.77512193 1643785
-0.27541915 -0.16710657 0.77357167 2692356
-0.26514983 -0.16601554 0.77600026 2626820
-0.25535139 -0.16636842 0.77600038 8272647
-0.244782 -0.16728514 0.77484643 12282649
-0.23581594 -0.16797121 0.77597135 12677661
-0.22685859 -0.1695883 0.7762 12611614
-0.40284339 -0.17129248 0.78399998 9545390
-0.39464775 -0.17171496 0.78300005 9611182
-0.38490605 -0.17165232 0.78271425 9808555
-0.37498742 -0.1712137 0.78071433 9874092
-0.36762759 -0.17105705 0.78000009 9677230
-0.22016667 -0.17000893 0.78400004 10635268
-0.21468149 -0.17337921 0.78394008 10174464
-0.39449123 -0.16829233 0.78766668 9611437
-0.38503623 -0.16811548 0.78717136 9808559
-0.37553087 -0.16800594 0.7855314 9874352
-0.36564511 -0.16805075 0.78514278 9742767
-0.35458124 -0.16765539 0.78499991 9611437
-0.34483004 -0.16759436 0.78471422 9611694
-0.33490041 -0.16744184 0.78400016 9216937
-0.32505023 -0.16731976 0.78342873 6581350
-0.3142547 -0.16631062 0.78475004 4013619
-0.30493712 -0.16559891 0.78442866 3421738
-0.29600668 -0.16490835 0.78363633 2303514
-0.28495088 -0.16361725 0.78412515 1709579
-0.27453235 -0.16266347 0.78518206 2889220
-0.26511794 -0.16259162 0.78539997 2824455
-0.25510144 -0.16265397 0.78521085 8732939
-0.24558873 -0.16316709 0.78417867 12480537
-0.23411822 -0.1647663 0.78350019 12677662
-0.22498146 -0.16635162 0.78524178 12085018
-0.21596737 -0.16803749 0.78740001 10437378
-0.27382055 -0.15946747 0.78900003 2823171
-0.26478973 -0.15946747 0.78900003 3087369
-0.25511387 -0.15946747 0.78900003 8338955
-0.24930832 -0.15946749 0.78900003 12545300
-0.40398875 -0.17001663 0.79000002 9611181
-0.21066935 -0.17361341 0.79166669 9977856
-0.20628197 -0.17269857 0.79223329 9781248
-0.41096166 -0.16479188 0.79600006 9743280
-0.40455028 -0.16600917 0.79313385 9545901
-0.39484623 -0.16458485 0.79499996 9611438
-0.38467368 -0.16440375 0.79412502 9808816
-0.37397799 -0.16386254 0.79443568 9611694
-0.36491734 -0.16372137 0.79399997 9546158
-0.35508794 -0.16372494 0.79408169 9545901
-0.34498921 -0.16371708 0.79467416 9414315
-0.33513862 -0.16389073 0.79420024 9282729
-0.32505921 -0.16374007 0.79346704 6647916
-0.3156665 -0.16279919 0.79381824 4211254
-0.30460429 -0.16169068 0.79357135 3487276
-0.29509205 -0.16141483 0.79189992 2368796
-0.28545755 -0.16178502 0.7908572 1709837
-0.2793346 -0.16160968 0.79000002 2035715
-0.24445726 -0.16160968 0.79000002 12677914
-0.23458059 -0.16159928 0.79089999 12612384
-0.2244605 -0.16144688 0.79237491 12151584
-0.21445222 -0.16404745 0.79266036 10241027
-0.20584241 -0.16573404 0.79498142 9846016
-0.37350166 -0.15998004 0.79800004 9480108
-0.36502022 -0.15998004 0.79799998 9414829
-0.35523397 -0.15998004 0.79799998 9348779
-0.34479532 -0.15998004 0.79799998 9414315
-0.33494979 -0.15995142 0.79785717 9348522
-0.32546687 -0.15977956 0.79699999 7767687
-0.30304065 -0.15802033 0.7980001 3487531
-0.29505646 -0.1580658 0.79706466 2434844
-0.28452817 -0.15639494 0.79641086 1710350
-0.27596146 -0.15699761 0.79615784 2364165
-0.26485348 -0.15807703 0.79499996 3087369
-0.25518459 -0.15812674 0.79525 8733451
-0.2449002 -0.15855464 0.79479998 12743452
-0.2351865 -0.15876409 0.79551643 12612384
-0.22460817 -0.15857412 0.79750013 12152354
-0.21561681 -0.15867354 0.7980001 10637067
-0.30837849 -0.16038099 0.80000001 3882289
-0.30837852 -0.15776147 0.80000007 3947825
