# .PCD v0.7 - Point Cloud Data file format
VERSION 0.7
FIELDS x y z rgb
SIZE 4 4 4 4
TYPE F F F U
COUNT 1 1 1 1
WIDTH 747
HEIGHT 1
VIEWPOINT 0 0 0 1 0 0 0
POINTS 747
DATA ascii
0.0072714943 -0.2153759 0.57333338 8885657
0.015561577 -0.21545321 0.57637495 8819864
0.024820775 -0.21575825 0.57813627 8819864
0.031429756 -0.2171289 0.57800001 9149343
0.29553178 -0.21803752 0.57790005 9148829
0.15835074 -0.22043329 0.58425003 9147801
0.16605672 -0.22069347 0.58668435 9475735
0.17446682 -0.22123575 0.58853835 9541527
0.18515944 -0.22174324 0.58899999 9738906
0.19430879 -0.22174329 0.58900005 10066844
0.20649654 -0.22156407 0.58866674 10001565
0.21499664 -0.22099487 0.58695251 10132894
0.22500667 -0.22068186 0.58618188 10132637
0.23503701 -0.22041139 0.58552396 10393750
0.24509262 -0.22043909 0.5854764 10658977
0.25514254 -0.22041139 0.58552396 9936546
0.26281306 -0.2204017 0.58509088 9805473
0.018261259 -0.21170802 0.57999998 8819863
0.023344815 -0.21189052 0.58049995 8820118
0.035469081 -0.21454892 0.5830844 8820379
0.044584628 -0.21598165 0.58425021 8754586
0.055055302 -0.21669646 0.58477449 8754843
0.064965658 -0.21691683 0.58487105 8754843
0.074853092 -0.21687257 0.58500028 8820379
0.084896721 -0.21687175 0.58500046 8951453
0.095082216 -0.21699043 0.58512652 8951452
0.10498523 -0.21671002 0.58480656 9082781
0.11498886 -0.21686225 0.58469474 9082779
0.12488168 -0.21691532 0.58511126 9148315
0.13479665 -0.21681266 0.58472484 9213853
0.14509279 -0.21710865 0.5845663 9148059
0.15474644 -0.21747096 0.58553421 9147802
0.16364747 -0.21802063 0.58806825 9213594
0.1731208 -0.21885042 0.58900011 9344664
0.20879674 -0.21888699 0.58866668 9870235
0.21593213 -0.21799585 0.588 9935516
0.22495259 -0.21761139 0.58809698 9935774
0.23491766 -0.21728964 0.58739412 9868951
0.24566747 -0.21664944 0.58746582 9868694
0.25523984 -0.2151676 0.58745521 9870753
0.26515418 -0.21537003 0.58688825 9804960
0.27473742 -0.21666716 0.58561414 9542815
0.28442684 -0.21678318 0.58513755 9345437
0.29498094 -0.21623218 0.58513892 9279901
0.30447322 -0.21574098 0.58445191 9214366
0.31079581 -0.21414679 0.588 9279645
0.029999506 -0.20080869 0.58700001 9412256
0.034300178 -0.20526183 0.58668745 8689050
0.25642821 -0.20968948 0.58900005 10002082
0.26461449 -0.20968947 0.58900011 10002337
0.032399058 -0.19840614 0.58699995 8689307
0.17823836 -0.22067085 0.59000003 9672343
0.1848399 -0.22057328 0.5908888 9607063
0.19609413 -0.22085428 0.59075004 10001307
0.20314014 -0.22108845 0.59059989 10067100
0.036996674 -0.21055408 0.59142864 8689050
0.046372518 -0.21203111 0.59177774 8754842
0.055163193 -0.21253197 0.59438556 8952219
0.064977571 -0.21289636 0.59528565 8754842
0.074857526 -0.21297556 0.59516662 8820121
0.084889241 -0.21328188 0.59500021 9017243
0.094865903 -0.21324645 0.59509546 9017245
0.10499596 -0.21316257 0.59447604 9083038
0.11495214 -0.21310137 0.59449971 9082780
0.1251007 -0.21300428 0.59422696 9214109
0.13512549 -0.21272562 0.59344983 9148315
0.14472061 -0.21294703 0.59271443 9214108
0.15480228 -0.21313351 0.59301358 9082522
0.1655879 -0.21408157 0.59373581 9082522
0.17546798 -0.21526967 0.59393543 9213594
0.18515821 -0.21584462 0.59443915 9213338
0.1952755 -0.21559124 0.59496695 9279386
0.2048609 -0.21472636 0.59427196 9344921
0.21445768 -0.21373083 0.5925104 9410971
0.2250379 -0.212796 0.59287834 9542301
0.23482171 -0.21271096 0.59316862 9673115
0.24441722 -0.21232003 0.59270513 9932684
0.25155407 -0.21096398 0.59064293 10002337
0.27530456 -0.2115363 0.59099996 9805217
0.28564116 -0.21226498 0.59281474 9477022
0.29496777 -0.21241586 0.59471643 9476767
0.30519781 -0.21227187 0.59489989 9214366
0.31213605 -0.21180192 0.59439987 9083036
0.03703665 -0.20566574 0.59278673 8754586
0.044024073 -0.20719349 0.5956198 8951964
0.051562771 -0.2091319 0.59775001 8952220
0.19711804 -0.20932686 0.59900004 9147802
0.20654638 -0.20833245 0.59841686 9213849
0.21518598 -0.20751005 0.59616953 9542299
0.22410256 -0.20723262 0.59654111 9542556
0.23452276 -0.20838214 0.59834123 9739166
0.24694526 -0.20831768 0.59712845 10064012
0.25358185 -0.20690201 0.59434146 10265250
0.26603913 -0.20776711 0.59092313 10068386
0.27552578 -0.20714912 0.5941053 10068129
0.28311259 -0.20742683 0.5969488 10068130
0.29505327 -0.20960535 0.59700006 9542560
0.3053031 -0.20960534 0.59700006 9345694
0.31258801 -0.20925425 0.59600002 9083036
0.057217583 -0.21056472 0.60066658 8952221
0.064618587 -0.21051773 0.60099995 8952221
0.075150706 -0.21058193 0.60099989 8820636
0.085255556 -0.21100973 0.60099989 8951707
0.095082685 -0.21100967 0.60099989 9017244
0.10522474 -0.21094187 0.60147047 9148830
0.11479209 -0.21106701 0.60257488 9083036
0.12514639 -0.21108823 0.60263616 9083036
0.13497999 -0.21088864 0.60171884 9148315
0.14495239 -0.21079496 0.60133344 9148314
0.15478498 -0.21079491 0.60133356 9148058
0.16498718 -0.21086058 0.60137516 9082522
0.17537332 -0.21085012 0.60179406 9082009
0.18526305 -0.21124977 0.60044456 9213338
0.1925417 -0.21164094 0.60000002 9147802
0.29752156 -0.21002577 0.60100001 9608353
0.30538327 -0.21002576 0.60099995 9411231
0.31127954 -0.21002577 0.60100001 9279901
0.046145134 -0.20342165 0.60246789 9017498
0.054569308 -0.20642786 0.60490257 9083548
0.064155772 -0.20817584 0.6055271 8952221
0.075030744 -0.20886242 0.60465884 8820378
0.085044354 -0.20885792 0.60475022 8754841
0.094932802 -0.20885789 0.60475028 8820378
0.10433792 -0.20859547 0.60459989 8951450
0.11460802 -0.20862441 0.60549992 9148829
0.12469427 -0.20887284 0.60593343 9017244
0.13551034 -0.20913097 0.60349989 9148315
0.14505784 -0.20803314 0.60628587 9082522
0.15487896 -0.20835632 0.60588515 8950679
0.16497646 -0.20846444 0.60586882 9016729
0.17516288 -0.20841642 0.60628796 9016471
0.18516834 -0.20810251 0.6045 9082007
0.19530104 -0.2067773 0.60465342 9147800
0.20417115 -0.20461774 0.60380691 9279129
0.21474642 -0.20517667 0.602 9542044
0.22664131 -0.20505726 0.60085708 9805214
0.23579873 -0.20479846 0.60181808 10067873
0.24455242 -0.20471194 0.60309434 9209735
0.2509453 -0.20244022 0.60480005 10658205
0.28786033 -0.20669685 0.60280007 10265253
0.29481909 -0.20718968 0.60446155 9937058
0.30587202 -0.20728908 0.60505646 9411230
0.31483328 -0.20706804 0.60480493 9279901
0.32087004 -0.20550413 0.60800004 9345696
0.04243682 -0.19936204 0.59999996 8754843
0.24599335 -0.19986746 0.60600001 8815492
0.25144321 -0.19986744 0.60600001 11053219
0.048948854 -0.20150073 0.61400002 8754843
0.056127965 -0.20270216 0.6125778 8689050
0.065310091 -0.2046859 0.61454314 8689049
0.074781649 -0.20536987 0.61510026 8820121
0.084839322 -0.20536995 0.61510015 8820635
0.094952933 -0.20565763 0.61448431 8754841
0.10522334 -0.20561852 0.61433327 8885914
0.11526848 -0.20561852 0.61433327 9017500
0.12540293 -0.20569588 0.61423886 8951451
0.13536352 -0.20597437 0.61389983 9148570
0.14517134 -0.20487422 0.61636847 8951450
0.15515286 -0.20515518 0.61620569 8950936
0.16510734 -0.205209 0.61609954 9016729
0.17503263 -0.2048241 0.61519468 8950935
0.18527007 -0.20376025 0.61327589 9082007
0.1944456 -0.20233166 0.61217874 9213079
0.20082089 -0.20255885 0.61242861 9278615
0.28854308 -0.20323372 0.613069 10987946
0.29553398 -0.20248614 0.61355877 10462374
0.30494881 -0.20359047 0.61467111 9739424
0.31503668 -0.20298934 0.61548561 9345951
0.32265687 -0.20247574 0.61529988 9279901
0.053205471 -0.19951586 0.611 8754843
0.18760131 -0.19938329 0.61600006 9082007
0.19471388 -0.19918211 0.61459994 9213078
0.20037208 -0.19931172 0.61500001 9474963
0.29557097 -0.19884749 0.6175456 11053480
0.057537422 -0.20093215 0.61999995 8689050
0.064907417 -0.20116089 0.62374347 8689050
0.075181268 -0.20135009 0.62591827 8689050
0.085017957 -0.20130999 0.62612766 8754842
0.095003299 -0.20165147 0.62567872 8754841
0.10487252 -0.20199443 0.62473482 8952220
0.11494 -0.20207863 0.62506151 8951963
0.12516019 -0.202231 0.6256001 9017244
0.13509245 -0.20219859 0.62570238 8951450
0.14471737 -0.20216124 0.62518758 8951450
0.15479641 -0.20219202 0.62548023 8819864
0.16489366 -0.20210887 0.62609118 8951193
0.17515668 -0.2017529 0.62394327 8950935
0.18333179 -0.20114829 0.6218847 9082007
0.19055036 -0.20069607 0.62400001 9082007
0.30635759 -0.20060486 0.62176931 10396325
0.31503683 -0.20056204 0.62199998 9542816
0.32371444 -0.20063345 0.62161547 9214622
0.058054466 -0.19812123 0.62557143 8689050
0.064875267 -0.19916523 0.62722224 8689049
0.074387543 -0.19925071 0.62881827 8689050
0.085113548 -0.19921483 0.62900007 8754843
0.095790334 -0.19925071 0.62881827 8754585
0.10500203 -0.19941217 0.62800014 9017757
0.1147572 -0.19941218 0.62800014 8886170
0.12502584 -0.1994122 0.62800014 9148829
0.13505124 -0.19943929 0.62800014 9017243
0.14504963 -0.19992627 0.62800002 9017243
0.15480483 -0.19992627 0.62800008 8951450
0.16764058 -0.19992627 0.62800002 8885655
0.1759554 -0.1992061 0.62723076 8950934
0.18438706 -0.19811615 0.62567347 9016471
0.19055036 -0.19916366 0.62400001 9082007
0.29851827 -0.1981855 0.62575001 12038831
0.30440637 -0.19775321 0.62512004 11644845
0.31502089 -0.19845717 0.62499988 9871266
0.32504436 -0.19846606 0.62422723 9280158
0.3308813 -0.19826467 0.62600005 9279901
0.055034142 -0.20016499 0.63200003 8689050
0.14516944 -0.20048168 0.63299996 9017243
0.1550023 -0.20048168 0.63299996 8951450
0.16497889 -0.20065765 0.63355553 8885657
0.17299683 -0.20034596 0.6325714 8950934
0.056858245 -0.19620198 0.63257152 8689050
0.064992175 -0.19666061 0.6340636 8688793
0.074862391 -0.19740479 0.6356923 8951706
0.085216708 -0.19758466 0.63563168 8820635
0.095078409 -0.19766696 0.63536847 8754584
0.10521486 -0.19762589 0.63550001 8885913
0.11508655 -0.1976257 0.63550007 8886427
0.12495825 -0.19762583 0.63550001 9018013
0.13510171 -0.19766696 0.63536859 9017499
0.14494936 -0.19758461 0.63563162 9017243
0.15509287 -0.19762571 0.63550019 8951450
0.1651345 -0.19792429 0.63649064 8885657
0.17541081 -0.19675861 0.63520747 8885399
0.18271911 -0.19468087 0.63554287 9082521
0.29947582 -0.19674905 0.63100004 12499637
0.30484205 -0.1949247 0.63260007 12499636
0.31489015 -0.19550411 0.6339854 10922409
0.32496512 -0.19559297 0.63382632 9477023
0.33256266 -0.1955944 0.63330007 9345694
0.058438148 -0.19357048 0.64100003 8623515
0.065136753 -0.19283359 0.64288241 8689307
0.075115308 -0.19348979 0.64545935 8754843
0.084957764 -0.19381462 0.64501488 8754842
0.09500131 -0.19372816 0.64536333 8754841
0.10500168 -0.19396153 0.64549989 8754585
0.11477471 -0.19397277 0.64585739 8820634
0.12455977 -0.19385712 0.64516163 8886427
0.13497692 -0.19414587 0.64494723 8951963
0.14501055 -0.19429709 0.6448946 8951450
0.15478876 -0.19426213 0.64505529 8951450
0.16480121 -0.19459738 0.64589483 8885656
0.17388974 -0.19355007 0.64423543 8951191
0.18306778 -0.19302484 0.64620006 9016727
0.30985776 -0.19342208 0.64400005 12894649
0.31508663 -0.19245261 0.64475012 11579823
0.3246443 -0.19188626 0.64399993 9805218
0.33493063 -0.1924081 0.64273083 9411230
0.34066015 -0.19123058 0.64550006 9345694
0.32877705 -0.18979226 0.64600003 9608353
0.33511481 -0.18979226 0.64599997 9411230
0.34066015 -0.18964536 0.64550006 9411487
0.065647602 -0.19099978 0.65120006 8689306
0.075043648 -0.19098076 0.65469229 8689050
0.085059538 -0.19100115 0.65500009 8689050
0.095295958 -0.19103941 0.65428585 8754843
0.10538395 -0.19098192 0.6546452 8689049
0.11473223 -0.19095241 0.65511757 8754842
0.12529086 -0.19094494 0.65450001 8951964
0.13504896 -0.19121605 0.65338492 8885914
0.14518751 -0.19115803 0.65362185 9017243
0.155239 -0.1911847 0.65404922 8951449
0.16488646 -0.19148228 0.65542227 9016728
0.1743789 -0.19140673 0.65385711 8951191
0.18312393 -0.19115269 0.65614283 8950934
0.31856382 -0.19184394 0.65300006 11119531
0.32453921 -0.19076331 0.65324998 10133668
0.33451515 -0.19019543 0.65100002 9477024
0.066813365 -0.18884173 0.65440619 8754843
0.075075239 -0.18900837 0.65652007 8689050
0.084961183 -0.1890745 0.65700012 8754843
0.091268592 -0.18894736 0.65780002 8623257
0.10749137 -0.18875653 0.65899998 8689050
0.11553173 -0.18897671 0.6576156 8754842
0.12513267 -0.18890454 0.65640748 8952220
0.13489635 -0.18880941 0.65585726 8820378
0.14507131 -0.18876494 0.65613806 9017243
0.1546997 -0.18860584 0.65714294 9016985
0.16503078 -0.18862924 0.65855557 9082520
0.17552803 -0.18888994 0.655931 8885398
0.18242066 -0.18929461 0.65575004 8950934
0.31938577 -0.18950823 0.65600002 10659755
0.32555434 -0.18845911 0.65521431 10002339
0.33506736 -0.18787044 0.65405554 9673889
0.34290829 -0.18778042 0.65300006 9411487
0.096323051 -0.19066378 0.66000003 8689050
0.10279815 -0.19066377 0.66000003 8623257
0.18805382 -0.19174431 0.66000003 9082520
0.318479 -0.19146864 0.66299999 11974324
0.32062566 -0.19044498 0.66300005 11185070
0.06687706 -0.18556127 0.66438472 8754842
0.075172752 -0.18686479 0.66377777 8689050
0.085091799 -0.18720886 0.66500026 8754843
0.095371462 -0.18819366 0.66329288 8689050
0.10415993 -0.18810183 0.66364872 8689049
0.11499421 -0.18775323 0.66500014 8754842
0.12586291 -0.18680158 0.66578561 8820635
0.13476516 -0.18639384 0.66599989 8820635
0.14500354 -0.18625386 0.66549957 8820121
0.15539418 -0.18631589 0.66572201 8885657
0.16539218 -0.18756506 0.66433322 8951191
0.1752827 -0.18769056 0.66477782 8819862
0.18368706 -0.18722996 0.66502178 8885399
0.31876653 -0.18776391 0.66660005 11316908
0.32442614 -0.18638791 0.66409677 10199461
0.33483261 -0.18416226 0.66385692 9739681
0.3446658 -0.18372095 0.66262126 9542816
0.35095158 -0.18230961 0.66500002 9542560
0.064708591 -0.18453451 0.67609084 8623513
0.074887522 -0.18402903 0.67363155 8754842
0.085044339 -0.18400525 0.67322212 8754842
0.094981641 -0.18442424 0.67293537 8820378
0.1051528 -0.18459861 0.67301494 9083032
0.11534489 -0.18460591 0.67340332 8754841
0.1243889 -0.1840589 0.67391658 8886427
0.13519092 -0.18269207 0.67508686 8820634
0.14468372 -0.18263906 0.67628312 8885914
0.15393634 -0.18290268 0.6760667 9083036
0.16505006 -0.18498188 0.67311752 8950934
0.17509057 -0.18545921 0.67450017 9016727
0.1824871 -0.18537109 0.6778 8819864
0.31814337 -0.18652521 0.67563641 11645359
0.32457224 -0.1829682 0.67345458 10199460
0.33475044 -0.18108559 0.6740911 9870753
0.34518453 -0.18112713 0.67069995 9673631
0.35249481 -0.18093807 0.67000002 9673633
0.13684458 -0.17947778 0.67900002 8754841
0.14461635 -0.1794778 0.67899996 8754841
0.15294324 -0.1794778 0.67899996 9018013
0.33602759 -0.17892125 0.67644447 9870753
0.34515995 -0.17889968 0.67456764 9674144
0.35350117 -0.17865519 0.67456001 9673887
0.066459924 -0.18199714 0.68592322 8689305
0.07501214 -0.18118924 0.6835404 8755097
0.084981486 -0.18102558 0.68257147 8886427
0.094966598 -0.18115735 0.68324995 8820634
0.10496869 -0.18106873 0.68291652 8820634
0.11494961 -0.18095794 0.6825 8820634
0.12423614 -0.18102621 0.68185717 8754841
0.13204262 -0.18141204 0.67999995 8754841
0.15832376 -0.18164802 0.68109083 8820121
0.16505897 -0.18147524 0.68225002 8885655
0.17506473 -0.18211325 0.6847499 8885655
0.18505239 -0.18333234 0.68496889 8885399
0.31558552 -0.18328407 0.68424064 11908785
0.32377169 -0.18124157 0.6820001 10133924
0.33051467 -0.18085541 0.68000001 10002339
0.06671755 -0.17863321 0.6886 8952476
0.074565955 -0.17860331 0.68690896 8820890
0.085022636 -0.17861788 0.68637508 8820634
0.094646856 -0.17878054 0.68700016 8820634
0.10475687 -0.17878053 0.68700016 8820634
0.11486688 -0.17878054 0.68700016 8886427
0.12545675 -0.17889164 0.68446165 8754841
0.13435155 -0.17893967 0.68435496 8754841
0.14477421 -0.1788208 0.68500012 8820634
0.15496327 -0.17887656 0.68460715 8820634
0.16528495 -0.17863594 0.68644452 8885657
0.17525452 -0.17907329 0.68812507 8819864
0.18054432 -0.17930099 0.68900001 8819862
0.31694093 -0.17988046 0.68820012 10856873
0.32527146 -0.17793804 0.68528301 10068130
0.33519447 -0.17615058 0.68409234 9871010
0.34509254 -0.175364 0.68467146 9871010
0.3551318 -0.17518891 0.68398434 9608351
0.36147347 -0.17402786 0.68599993 9542815
0.18547305 -0.18150343 0.69225007 8819862
0.19187856 -0.18258594 0.6980769 8754069
0.30894986 -0.18060216 0.69400001 12631733
0.31221566 -0.18189995 0.69066697 12434357
0.32070807 -0.18012607 0.69000006 10528937
0.064669713 -0.17489085 0.69281065 8820635
0.075054944 -0.17541184 0.69372457 8820892
0.084858149 -0.17537349 0.69357157 8820634
0.095142469 -0.17551838 0.6941427 8820634
0.10513026 -0.17558944 0.69488114 8886427
0.11504442 -0.17569888 0.69485706 8886427
0.12469209 -0.1757168 0.69398248 8754586
0.13463907 -0.1758956 0.69338882 8820122
0.1447628 -0.17579624 0.69300002 8951451
0.15501188 -0.17585322 0.69322199 8819864
0.16501115 -0.17624052 0.69475013 8819864
0.17423761 -0.17695628 0.69564289 8819864
0.18471003 -0.17860283 0.6955201 8819863
0.19002245 -0.17847016 0.69900006 8754069
0.30894986 -0.17832974 0.69400001 11711406
0.31503451 -0.17735893 0.69436228 10857129
0.32485169 -0.17435825 0.69404799 10068644
0.33452272 -0.1728726 0.69350004 9936546
0.34524614 -0.1715911 0.69415396 9936546
0.35543582 -0.17126933 0.69321609 9871010
0.36345184 -0.17100604 0.69259095 9673887
0.33860672 -0.16931498 0.69900006 10002339
0.34513324 -0.1691535 0.69833332 9936546
0.35535026 -0.16885476 0.69710004 10002339
0.36446667 -0.16858831 0.69600004 9804960
0.19405201 -0.18118992 0.70200002 8819862
0.06743677 -0.17117098 0.7019375 8623514
0.07489384 -0.17151615 0.70314282 8755355
0.085097536 -0.17149267 0.70325011 8820634
0.095001668 -0.17143863 0.7032423 8886427
0.10478683 -0.17151606 0.70314276 8886427
0.11499505 -0.17149276 0.70324987 8886427
0.12492505 -0.17139351 0.70270586 8952220
0.13466202 -0.17203727 0.70290899 8951706
0.14489876 -0.17200704 0.70299977 8820120
0.15524133 -0.17214915 0.70347714 8885657
0.16520812 -0.1724457 0.70479983 8819864
0.17536423 -0.1738736 0.70422739 8885657
0.18495059 -0.17524746 0.70493335 8819864
0.1948532 -0.178032 0.70541167 8819862
0.2000062 -0.17794569 0.70600003 8951191
0.30950794 -0.17488766 0.70300001 11119016
0.31543985 -0.17332946 0.70471418 10922923
0.32375681 -0.17189226 0.70300001 10397351
0.3337062 -0.17087744 0.70071429 10067875
0.067994729 -0.169117 0.70775008 8754843
0.074859507 -0.1689378 0.7069999 8754842
0.084685825 -0.1689378 0.7069999 8886426
0.095028549 -0.16883159 0.70655555 9018011
0.10491645 -0.1689378 0.7069999 8952220
0.11474279 -0.1689378 0.7069999 9018013
0.12504692 -0.16880503 0.70644444 8886427
0.13497341 -0.16893779 0.7069999 8885913
0.14479972 -0.1689378 0.7069999 8885657
0.15520404 -0.1689378 0.7069999 8885657
0.16523738 -0.16914688 0.70787501 8885657
0.17245308 -0.16941568 0.70900005 8819864
0.32618794 -0.16856505 0.70699996 10199717
0.33453241 -0.16805647 0.70531118 10068132
0.34603807 -0.16649579 0.70600015 9870753
0.35501409 -0.16576156 0.70582843 10002082
0.36538202 -0.16471599 0.70384645 9936289
0.37190583 -0.16237643 0.7061668 9871009
0.3675878 -0.15945914 0.70860004 9936546
0.37209186 -0.15915534 0.70725 9871007
0.22395115 -0.18155801 0.71799999 8951191
0.17734008 -0.17139827 0.71000004 8819864
0.18556502 -0.17187612 0.71382761 8819863
0.19456375 -0.17362925 0.71404094 8819863
0.20327243 -0.17571262 0.71669996 8885399
0.22395115 -0.17920703 0.71800005 9082520
0.30736557 -0.17256066 0.71000004 11251628
0.31458101 -0.1719749 0.71452188 10857129
0.32186192 -0.17053556 0.71125007 10462888
0.06821619 -0.16583939 0.71614277 8886428
0.075066298 -0.16545744 0.71449214 9018013
0.085316606 -0.16452083 0.71441138 9083805
0.094866388 -0.16414602 0.71367979 9149342
0.10503983 -0.16442606 0.71330988 9083549
0.11456084 -0.1646263 0.71465224 9083805
0.12496443 -0.16605958 0.71411771 8952220
0.13495444 -0.16597569 0.71464688 8886426
0.14499457 -0.16626431 0.71499985 9017755
0.15478279 -0.16633461 0.71575004 8886170
0.16480044 -0.16640513 0.71605557 8820120
0.17452416 -0.16737877 0.71527028 8819863
0.18451478 -0.16854413 0.71669233 8885656
0.19134462 -0.16827378 0.71900004 8885655
0.31662503 -0.16882449 0.71560001 10397095
0.32472661 -0.16601366 0.71500015 10133924
0.33503255 -0.16398041 0.71443325 10002339
0.34418878 -0.16339359 0.71365958 9936546
0.35567752 -0.16167408 0.71451533 10002339
0.3624675 -0.16118275 0.71221435 9936801
0.086123213 -0.15944521 0.71899998 9346977
0.096105136 -0.15923931 0.71674997 9346207
0.10435078 -0.15924461 0.71633339 9346206
0.1136733 -0.15933435 0.71850008 9280669
0.35774222 -0.15897346 0.71733332 10199205
0.36482319 -0.15869589 0.71461302 10002339
0.37344572 -0.15814634 0.71314287 9936801
0.2184175 -0.18045498 0.72300005 9082520
0.22444673 -0.18045498 0.72300005 9016727
0.23338947 -0.18060474 0.72360003 9082520
0.19650388 -0.17102359 0.72066671 8819862
0.20662865 -0.17341951 0.72220004 8819862
0.214858 -0.17469259 0.72323376 8950935
0.22505538 -0.1747919 0.72446185 9016984
0.23497006 -0.17430432 0.72538739 9148313
0.24528772 -0.17346562 0.72433352 9214361
0.2550278 -0.17323002 0.72499996 9477276
0.26389128 -0.1732064 0.72503757 9739934
0.27456537 -0.17231563 0.72611099 9937313
0.2851637 -0.17226292 0.72588885 10199715
0.29516616 -0.17186733 0.72422254 10331300
0.30516675 -0.1720898 0.72266656 10594214
0.31153813 -0.17110266 0.72100002 10594215
0.065557465 -0.1626558 0.72492099 9018013
0.074307278 -0.16131349 0.72364533 9149599
0.081057593 -0.16165936 0.72100002 9149599
0.11861855 -0.16202454 0.72000003 9281185
0.12457139 -0.1621089 0.72037512 9083806
0.13515384 -0.16166817 0.72265863 9018013
0.14517295 -0.16198763 0.72499979 8820634
0.15490192 -0.1630372 0.72450012 8820634
0.16508284 -0.16314974 0.72500014 8754584
0.17584591 -0.16409475 0.72315389 8819862
0.18510889 -0.16481061 0.7245 8885655
0.19530506 -0.16586569 0.72498339 8819862
0.20520678 -0.16764192 0.72631264 8819862
0.21505687 -0.16790892 0.72762525 8885655
0.22447869 -0.16788274 0.72831035 9148570
0.23393819 -0.1676304 0.72900003 9214620
0.24943432 -0.16822714 0.72900003 9279899
0.25479838 -0.16822717 0.72900003 9411484
0.26520959 -0.1684653 0.72834778 9543068
0.27468517 -0.16859227 0.72799999 9805984
0.28480342 -0.16859229 0.7280001 9871777
0.29583263 -0.16821106 0.72789997 10134179
0.305085 -0.16695732 0.72609556 10331558
0.31558973 -0.16577598 0.72478276 10199972
0.32427505 -0.16279189 0.72405869 10068387
0.33522302 -0.16109721 0.72377777 9936545
0.34477517 -0.16074935 0.72205889 9936546
0.35250601 -0.16093512 0.72039998 10002339
0.065182589 -0.15846135 0.7280001 9083806
0.075879052 -0.15861574 0.72669566 9149599
0.084711507 -0.15691191 0.72518885 9280927
0.094672911 -0.15762155 0.72142857 9412000
0.10802292 -0.15730943 0.72000009 9280413
0.11521517 -0.15645309 0.72347999 9412255
0.12478707 -0.15711229 0.72455353 9215391
0.13409971 -0.15808985 0.72704548 9083806
0.14508493 -0.15862463 0.72875005 8820634
0.32784873 -0.15916 0.72666669 10002593
0.33513385 -0.1583375 0.72744447 10002336
0.34503219 -0.15796772 0.72537827 10067873
0.35512304 -0.15691032 0.72485709 10133667
0.36466715 -0.15541603 0.72363168 10199461
0.37265995 -0.15566327 0.72333348 10265253
0.23903368 -0.17025062 0.73000002 9279899
0.24440509 -0.17025064 0.73000002 9214362
0.15509388 -0.16150792 0.73100001 8820634
0.16465612 -0.16150796 0.73100001 8689048
0.17473467 -0.16143434 0.7306667 8819864
0.18610473 -0.16121398 0.73286945 8885657
0.19516064 -0.16106892 0.73446864 8754071
0.20517863 -0.16268352 0.73364311 8819862
0.21486866 -0.16275562 0.73396456 8885655
0.22481449 -0.16265433 0.73405015 8951448
0.23529691 -0.16316324 0.73396754 9083034
0.24482425 -0.16434915 0.73304963 9214106
0.25493118 -0.16328561 0.73338044 9345691
0.2650601 -0.16294777 0.73276454 9477277
0.27499962 -0.16346851 0.73158336 9608606
0.28497335 -0.1634585 0.73171425 9740192
0.29490483 -0.16335793 0.73180008 9871777
0.30529574 -0.16173403 0.73180014 10003363
0.31443885 -0.16141354 0.7308619 10002593
0.32151744 -0.16014974 0.73300004 10002593
0.067394331 -0.15481794 0.73512495 9149342
0.075077862 -0.15431316 0.73438972 9412513
0.083323687 -0.15293133 0.73580003 9675171
0.12517756 -0.1532276 0.73433334 9477792
0.13518608 -0.15479101 0.73321414 9149599
0.14410105 -0.15596341 0.73591673 8886427
0.15508771 -0.15803997 0.73437518 8820634
0.16469458 -0.15804 0.73437512 8689048
0.1750475 -0.15826103 0.73552281 8754328
0.18468986 -0.15804905 0.73627281 8885656
0.19503415 -0.15768862 0.73808706 8819864
0.20512564 -0.15843594 0.73900008 8819864
0.21479255 -0.15843593 0.73900008 8885655
0.22506364 -0.15843593 0.73900008 8885655
0.23533466 -0.15843596 0.73900008 8951449
0.24500155 -0.15843594 0.73900008 9082777
0.25466844 -0.15843594 0.73900008 9279899
0.2647385 -0.15831682 0.73844445 9345692
0.27528194 -0.15858051 0.73707706 9477278
0.28531158 -0.15861042 0.73700017 9740450
0.29528591 -0.15846701 0.73633337 9805730
0.30596378 -0.15705818 0.73653346 9739935
0.31514829 -0.1560505 0.73538905 9936800
0.32485843 -0.15491441 0.73483706 9936800
0.33472243 -0.15343769 0.73450029 10002593
0.34473762 -0.15339085 0.73225945 10133664
0.354303 -0.15291534 0.73168159 10199457
0.36473036 -0.15202531 0.73433328 10265252
0.33847824 -0.14996046 0.73600006 10002595
0.34527647 -0.1484523 0.73690021 10133921
0.35344931 -0.1485893 0.73604763 10265250
0.36473036 -0.14962088 0.73433334 10331045
0.072792225 -0.15118435 0.745 9675426
0.13595849 -0.15159047 0.74400002 9280927
0.14550485 -0.15384451 0.74316657 8886427
0.15586492 -0.1540384 0.745 8754841
0.16498287 -0.15382256 0.74600023 8754841
0.175001 -0.15384488 0.74558842 8754584
0.18411064 -0.15451987 0.74444455 8819864
0.19495642 -0.15524462 0.74400002 8754328
0.20557292 -0.15606312 0.74500024 8754584
0.21531832 -0.15606314 0.74500024 8754327
0.22483586 -0.15590604 0.74425024 8754584
0.23487335 -0.15633821 0.74420696 8820119
0.24544269 -0.1564627 0.74400014 9017239
0.2552349 -0.15507372 0.74620932 9148569
0.26534221 -0.15514039 0.74594116 9214106
0.27491111 -0.15478478 0.74474996 9345948
0.28493181 -0.15460573 0.74388897 9543071
0.29514536 -0.1543026 0.74294156 9674657
0.30426243 -0.15265089 0.74351019 9608608
0.31454813 -0.15152241 0.7409696 9739422
0.072792217 -0.1493548 0.74500006 9872804
0.30661541 -0.14802125 0.74764001 9542815
0.31381395 -0.14685428 0.74604738 9608350
0.32531723 -0.14868657 0.74166673 9871264
0.33487281 -0.1483524 0.73999983 10002594
0.34092274 -0.1483524 0.74000001 10002594
0.35774052 -0.14855289 0.74100012 10265250
0.13926071 -0.15075813 0.75200003 9346976
0.14606892 -0.15217985 0.75296152 9018013
0.15378311 -0.15186623 0.75446695 8886427
0.1653427 -0.15094119 0.75600016 8689048
0.17523195 -0.15094119 0.75600016 8754327
0.18564188 -0.15193212 0.75282371 8819864
0.19481768 -0.15206426 0.7524001 8820377
0.2047905 -0.15216 0.75287503 8689048
0.21463755 -0.15215942 0.75287497 8688790
0.22490674 -0.15224767 0.75288373 8754840
0.23531888 -0.15252769 0.75266671 8754583
0.24487893 -0.15264826 0.75225002 8885655
0.25487757 -0.15211092 0.75317669 8951448
0.26474935 -0.1514122 0.75465006 9214620
0.2746323 -0.1517763 0.75399995 9280156
0.2848992 -0.15166447 0.75344443 9411485
0.29493889 -0.15112771 0.7507779 9543071
0.13926071 -0.1482958 0.75200003 9412256
0.14413385 -0.14839889 0.75400007 9149599
0.1541201 -0.14861567 0.7561335 8886426
0.1653427 -0.14908461 0.75600004 8820120
0.17523195 -0.14908461 0.75600004 8819864
0.18512124 -0.14908461 0.75600004 8819864
0.1950105 -0.14908461 0.75600004 8885657
0.20507067 -0.14920786 0.756625 8689048
0.21507311 -0.1492818 0.75700003 8754071
0.22497547 -0.1492818 0.75700003 8951450
0.23487782 -0.1492818 0.75700003 8753813
0.24469811 -0.14923251 0.75674999 8951448
0.25496417 -0.14908461 0.75600004 8951448
0.26583123 -0.14915235 0.75463641 9214621
0.27463228 -0.14930743 0.75399995 9214622
0.28590646 -0.14870404 0.754875 9411487
0.29578137 -0.14737624 0.75564021 9411485
0.30459192 -0.14459787 0.75339985 9411486
0.31569812 -0.14418338 0.75759995 9476765
0.32178631 -0.14675172 0.75040001 9739166
0.14493196 -0.14473031 0.76242858 9478306
0.15501291 -0.14555986 0.76470011 9018012
0.16498241 -0.14583981 0.76500016 8820377
0.17502299 -0.14586738 0.76514322 8820121
0.18512264 -0.14571178 0.76499981 8885657
0.19508098 -0.14599606 0.76505786 8885657
0.20528322 -0.14777273 0.76200008 8819864
0.21518807 -0.14816058 0.76400006 8754071
0.2245574 -0.14816062 0.764 8819863
0.23507164 -0.14809598 0.76366663 8885655
0.24555147 -0.14801516 0.76325011 8951448
0.25533223 -0.14664365 0.76526684 9016984
0.26485038 -0.14645541 0.76493758 9083035
0.27508482 -0.14624435 0.76383322 9148828
0.28497273 -0.14596736 0.76378596 9345693
0.29500404 -0.14434516 0.76366657 9411487
0.30429158 -0.14172174 0.76677775 9279901
0.31094208 -0.14165096 0.76600003 9345694
0.30843708 -0.13976982 0.76600003 9279901
0.31094208 -0.13976982 0.76600003 9411487
0.14801373 -0.14149658 0.77200001 9807270
0.15587206 -0.1415723 0.77405262 9083806
0.16518596 -0.14151628 0.77557135 8820634
0.17484857 -0.14164008 0.77625006 8754841
0.18518478 -0.14177699 0.77700001 8820121
0.19266389 -0.14214189 0.77900004 8885914
0.20569043 -0.14393495 0.77496427 8951450
0.21511306 -0.14386338 0.77378434 8885914
0.22479925 -0.14376719 0.77407175 8820120
0.23490372 -0.14375411 0.77400029 8885913
0.24502842 -0.14375409 0.77400029 8885657
0.25409865 -0.1430281 0.77517861 8951448
0.2651349 -0.14266042 0.77488869 9148570
0.2749562 -0.14249678 0.77400005 9279899
0.28507182 -0.14225101 0.77362072 9083034
0.29502034 -0.14177316 0.77353114 9345692
0.30328268 -0.14111756 0.7762 9279900
0.14801373 -0.13960072 0.77200001 9609636
0.15456282 -0.13875754 0.77729428 9215392
0.2888332 -0.13895348 0.77900004 9017243
0.29501092 -0.13886428 0.77850008 9148827
0.30453315 -0.13885155 0.77842861 9345692
0.16826165 -0.14048712 0.7840001 8754841
0.1751997 -0.14039752 0.78350002 8754841
0.18499568 -0.14053832 0.78428566 8754841
0.19682777 -0.14227273 0.78635287 8820377
0.2034345 -0.14220002 0.78692311 9017243
0.21495415 -0.14084552 0.78599995 9017243
0.22537868 -0.14053193 0.78424996 8689048
0.23529996 -0.14033031 0.78312504 8820377
0.24550557 -0.14030792 0.78300005 8951450
0.25599232 -0.14069024 0.78207147 8951450
0.26505357 -0.1408345 0.78185719 9017241
0.27548254 -0.14120559 0.78087509 9345692
0.28410241 -0.14104736 0.78000003 8885655
0.15911306 -0.13849334 0.78000003 8952220
0.16481824 -0.13860494 0.78183341 8754841
0.17519972 -0.13847342 0.78350013 8754841
0.1849957 -0.13861229 0.78428584 8820634
0.19503772 -0.13891524 0.78600013 8820634
0.20497723 -0.13911726 0.78714293 9017756
0.21495414 -0.13891526 0.78600001 9017243
0.22537868 -0.13860598 0.78425002 8820377
0.23584232 -0.13734701 0.78596777 8886170
0.24508619 -0.13708371 0.78659999 8820377
0.25526112 -0.13702187 0.7862497 8820378
0.2655237 -0.137062 0.78542852 8886169
0.27541435 -0.13732818 0.78433317 9214361
0.28493717 -0.13705063 0.78430951 9017242
0.29495278 -0.1361898 0.78512496 9083034
0.305664 -0.13477035 0.78460807 9279899
0.31244537 -0.13551572 0.78500009 9345692
0.1574021 -0.13441138 0.79180008 9149855
0.16519417 -0.13438065 0.7934646 8820891
0.17525974 -0.13429452 0.793827 8754841
0.18424223 -0.13485481 0.79309076 8820634
0.19507539 -0.1370793 0.79399991 8886427
0.20523153 -0.13622738 0.79360002 9083549
0.21476699 -0.13526356 0.7948125 9017756
0.2249133 -0.13511099 0.79393774 8820377
0.23425239 -0.13429877 0.7943638 8885914
0.24502619 -0.13351503 0.79600024 8885657
0.25478792 -0.13351505 0.79600018 8820377
0.26520041 -0.13351505 0.79600018 8820634
0.27547795 -0.13315299 0.79503858 8951962
0.28504637 -0.13255888 0.79418766 9017243
0.29501864 -0.1323705 0.79306239 9017241
0.30339023 -0.1318696 0.7924 9148828
0.31101468 -0.13074414 0.79500002 9279899
0.27856559 -0.12911581 0.79700005 9346206
0.28494594 -0.12905507 0.79662508 8951449
0.29522946 -0.1289943 0.7962501 9017241
0.30499977 -0.12732969 0.7945714 9148570
0.31101468 -0.12879179 0.79500002 9279899
