# .PCD v0.7 - Point Cloud Data file format
VERSION 0.7
FIELDS x y z rgb
SIZE 4 4 4 4
TYPE F F F U
COUNT 1 1 1 1
WIDTH 191
HEIGHT 1
VIEWPOINT 0 0 0 1 0 0 0
POINTS 191
DATA ascii
0 0 0 3753024
0.074883163 0.054899879 0.30683929 7296313
0.065184124 0.058784194 0.31641445 4005639
0.079103492 0.057984117 0.31047994 5260596
0.083485462 0.058534 0.31307819 8023386
0.092053413 0.059730809 0.31850001 8230291
0.059740987 0.063082419 0.317 6368265
0.065157942 0.065053612 0.31703362 4005383
0.078950033 0.061321214 0.31199998 7756352
0.085800186 0.064081497 0.31665459 6249549
0.091703705 0.062735721 0.3179552 7966862
0.066156805 0.075268827 0.31716621 4004870
0.071108826 0.07733833 0.31799999 3413505
0.089607887 0.068656482 0.32000002 4868668
0.092805177 0.068116769 0.32094425 5925476
0.08962547 0.071235947 0.32100001 8423551
0.095916554 0.074947901 0.32555133 5989982
0.10174651 0.076917857 0.32727006 6123112
0.097062133 0.081004545 0.32813048 6584178
0.10174567 0.081893928 0.32800004 4804935
0.078021921 0.06440784 0.33900008 12414232
0.088133603 0.07466317 0.33866662 10120259
0.092249617 0.07881014 0.33524463 9140317
0.089674287 0.083585806 0.33800003 9724213
0.091883153 0.082715295 0.33617568 8808779
0.078498587 0.066640608 0.34000009 12414234
0.082742661 0.067431338 0.34067816 10447933
0.07863465 0.074926578 0.34039536 10441742
0.084798068 0.075263329 0.34156376 10840885
0.090470195 0.075674325 0.34100005 10251331
0.078878641 0.082916625 0.34185719 6761990
0.084946156 0.085040919 0.34126845 10707492
0.090311006 0.088915378 0.34040001 9657641
0.079172693 0.090983115 0.34400001 4331009
0.083897218 0.091524243 0.34190884 10836239
0.09020488 0.09048181 0.34 9657126
0.087261029 0.10702802 0.34700009 11099151
0.090998806 0.10593995 0.34655559 10314015
0.076428838 0.11583046 0.34172091 9071691
0.085095137 0.11506415 0.34655076 10711352
0.091970392 0.11640088 0.34740201 10839844
0.07716874 0.12183644 0.34191489 11313798
0.085673064 0.12367072 0.34798157 7886381
0.094097912 0.12509318 0.3482165 8410404
0.088964373 0.13110943 0.34878945 11047014
0.092142269 0.13139822 0.34811977 12746544
0.084649108 0.12790005 0.35000017 6905925
0.084872447 0.13118868 0.35000017 7303001
0.11316044 0.099305756 0.38500002 5334627
0.10927287 0.10383765 0.38440439 2303261
0.11494131 0.10429345 0.38311207 2634541
-0.11276673 -0.033323668 0.39750004 2829345
-0.10824172 -0.031166714 0.39699996 2830374
-0.11465335 -0.050966103 0.40578961 9192195
-0.11484087 -0.044869494 0.40652549 3283721
-0.1123928 -0.036562968 0.40518281 2238236
-0.10785545 -0.036073349 0.40499997 1974552
0.10765713 0.026400965 0.4050189 9350062
0.1128855 0.025819967 0.40579176 9415854
-0.11212137 -0.050646599 0.41000006 10507788
-0.10810512 -0.050551973 0.4104445 10902804
-0.11214188 -0.045939498 0.41073304 5842947
-0.10774901 -0.045552775 0.41128111 7945479
-0.10642294 -0.039906632 0.41 3283463
0.11520084 0.028741779 0.41260001 9153197
0.11494189 0.032328121 0.41721538 8758696
-0.00085886678 0.0079788603 0.42199999 11037488
0.0021835149 0.008104478 0.42199996 10971697
-0.00085886678 0.011778778 0.42199996 11696188
0.0028735397 0.012344053 0.42200038 11366965
0.11506158 0.036811493 0.42176241 8561060
0.12255955 0.035343982 0.42200053 8692646
0.11664034 0.041697521 0.42200014 8495010
0.12152193 0.041536577 0.42199999 8560803
0.10923163 0.0094289556 0.47800002 10779483
0.11460966 0.0086807152 0.4782308 10714722
0.12177609 0.0085617173 0.47852385 8294544
0.10928878 0.014916631 0.47825 10647897
0.1149422 0.015328884 0.47775903 10582878
0.12236463 0.015036964 0.47802591 8097165
0.11569707 0.021135403 0.47727281 10648671
0.12109246 0.021123325 0.47700003 7827820
0.11534343 -0.083222061 0.48899975 4606280
0.12094048 -0.083222046 0.48900008 9021357
-0.084063701 -0.050746366 0.4885 9388032
-0.084523752 -0.047996353 0.48863661 9453824
0.10929623 0.0063250023 0.48000002 10845019
0.11419056 0.0061975922 0.48022214 10911843
0.12092815 0.0098818783 0.48100004 7104608
0.12092815 0.010669366 0.48100004 7038557
-0.21642101 -0.09145958 0.49900004 3618343
-0.2033395 -0.094787449 0.4979997 1840136
0.11701946 -0.092002966 0.49099994 4084309
0.1226394 -0.092002921 0.49100012 9152942
-0.21489443 -0.087442584 0.49778131 3813919
-0.20370714 -0.088044465 0.49816677 2434586
0.11701945 -0.088385604 0.49100012 3754830
0.1227732 -0.088162288 0.49100012 9087149
-0.080718011 -0.050501071 0.49000001 9453056
-0.07850419 -0.050624747 0.49120006 9519104
-0.083265379 -0.043433513 0.49289119 9256448
-0.077569231 -0.046008047 0.49611405 9782016
-0.082753681 -0.039050911 0.49742866 8994048
-0.21032524 -0.1004386 0.50100005 1708811
-0.20909645 -0.1004386 0.50100005 2036231
-0.21394184 -0.094714455 0.50023252 2697501
-0.20800278 -0.094252549 0.50006562 1842194
-0.21358448 -0.085503399 0.5 3814178
-0.20745274 -0.088368475 0.5 2829599
-0.075111225 -0.042695262 0.50186062 11164425
-0.081976712 -0.037177227 0.50516671 9190656
-0.076525092 -0.038197756 0.50432652 10966791
0.11871896 -0.041193374 0.514 10780516
0.12460215 -0.04119337 0.514 8290425
0.11871894 -0.037827309 0.514 10780514
0.12439203 -0.038037691 0.514 8486518
0.21843715 -0.13086826 0.72700006 9612979
0.22081465 -0.13086826 0.72700006 9744565
0.21837166 -0.12420698 0.72560006 9481907
0.22143555 -0.12511411 0.72647369 9613492
0.21933854 -0.13499373 0.73000002 9744565
0.22241446 -0.1347639 0.72999996 9876151
0.33649611 -0.26174596 0.74900001 9677749
0.33649611 -0.25500157 0.74900007 9809334
0.33649614 -0.24825715 0.74900001 9546420
0.22915116 -0.13263161 0.745 9744821
0.23155122 -0.13333166 0.74599999 9876406
0.22839315 -0.12775655 0.74000001 9613491
0.23020814 -0.12775655 0.74000001 9679283
0.23265025 -0.11109472 0.74200004 9745077
0.23265024 -0.10684294 0.74199992 9679285
0.23460582 -0.17431295 0.77300006 9941173
0.2452918 -0.17106368 0.77425003 10467000
0.25294879 -0.17099299 0.7725001 12175042
0.24529181 -0.16916227 0.77425009 10663864
0.25398737 -0.16921993 0.77219999 12832200
0.24774605 -0.11398508 0.77400011 9744820
0.24104738 -0.17575161 0.78100008 10006966
0.2394482 -0.17332733 0.79333329 9678772
0.24425903 -0.17234942 0.79427278 9875637
0.25468922 -0.17156935 0.79510003 11386813
0.26225594 -0.17131142 0.79300004 13095115
0.25618523 -0.16963856 0.79428577 11846592
0.26225594 -0.16936399 0.79300004 13292492
0 0 0 3753024
0.074883163 0.054899879 0.30683929 7296313
0.079103492 0.057984117 0.31047994 5260596
0.083485462 0.058534 0.31307819 8023386
0.079172693 0.090983115 0.34400001 4331009
0.083897218 0.091524243 0.34190884 10836239
0.087261029 0.10702802 0.34700009 11099151
0.090998806 0.10593995 0.34655559 10314015
0.076428838 0.11583046 0.34172091 9071691
0.085095137 0.11506415 0.34655076 10711352
0.091970392 0.11640088 0.34740201 10839844
0.07716874 0.12183644 0.34191489 11313798
0.085673064 0.12367072 0.34798157 7886381
0.094097912 0.12509318 0.3482165 8410404
0.088964373 0.13110943 0.34878945 11047014
0.092142269 0.13139822 0.34811977 12746544
0.084649108 0.12790005 0.35000017 6905925
0.084872447 0.13118868 0.35000017 7303001
0.11316044 0.099305756 0.38500002 5334627
0.10927287 0.10383765 0.38440439 2303261
0.11494131 0.10429345 0.38311207 2634541
-0.11276673 -0.033323668 0.39750004 2829345
-0.11465335 -0.050966103 0.40578961 9192195
-0.11484087 -0.044869494 0.40652549 3283721
-0.10785545 -0.036073349 0.40499997 1974552
-0.11212137 -0.050646599 0.41000006 10507788
-0.10810512 -0.050551973 0.4104445 10902804
-0.11214188 -0.045939498 0.41073304 5842947
-0.10774901 -0.045552775 0.41128111 7945479
-0.10642294 -0.039906632 0.41 3283463
0.10928878 0.014916631 0.47825 10647897
0.11569707 0.021135403 0.47727281 10648671
0.12109246 0.021123325 0.47700003 7827820
0.11534343 -0.083222061 0.48899975 4606280
0.12094048 -0.083222046 0.48900008 9021357
0.11701946 -0.092002966 0.49099994 4084309
0.1226394 -0.092002921 0.49100012 9152942
0.11701945 -0.088385604 0.49100012 3754830
0.1227732 -0.088162288 0.49100012 9087149
-0.081976712 -0.037177227 0.50516671 9190656
-0.076525092 -0.038197756 0.50432652 10966791
0.33649611 -0.26174596 0.74900001 9677749
0.33649611 -0.25500157 0.74900007 9809334
0.33649614 -0.24825715 0.74900001 9546420
0.23265025 -0.11109472 0.74200004 9745077
0.23265024 -0.10684294 0.74199992 9679285
0.24774605 -0.11398508 0.77400011 9744820
