# .PCD v0.7 - Point Cloud Data file format
VERSION 0.7
FIELDS x y z rgb
SIZE 4 4 4 4
TYPE F F F U
COUNT 1 1 1 1
WIDTH 258
HEIGHT 1
VIEWPOINT 0 0 0 1 0 0 0
POINTS 258
DATA ascii
0 0 0 11573636
-0.0045434372 -0.041797791 0.46716049 723976
0.0048909662 -0.043557711 0.46571329 592647
0.014111577 -0.043299429 0.46600008 527367
0.023084199 -0.041642934 0.46776918 724748
-0.025494546 -0.031060291 0.46899998 4408902
-0.014215057 -0.033333283 0.46705556 987147
-0.0050288863 -0.034959503 0.46300617 790025
0.0049815788 -0.034991797 0.46105564 789768
0.015190158 -0.03522962 0.46216163 658696
0.025041297 -0.034776717 0.46613741 790286
0.031830672 -0.035968732 0.46883672 2041124
-0.023686903 -0.02683715 0.46899989 3421749
-0.014875374 -0.025187692 0.46699992 2039317
-0.0051234411 -0.025033485 0.46423599 1710352
0.0048801922 -0.025071338 0.46334174 1973781
0.014726522 -0.025360988 0.46437037 1250317
0.023604605 -0.026621977 0.4673371 987406
0.030103948 -0.029524606 0.46900001 1053458
-0.01245766 -0.019542659 0.46900001 1841682
-0.005161311 -0.019500988 0.46799996 1184269
0.0047868178 -0.019500988 0.46799996 2302232
0.012452017 -0.019518849 0.46842861 2171416
-0.0036904614 -0.051977735 0.47759196 593160
0.0048693535 -0.052997876 0.47634649 527367
0.014777467 -0.052860659 0.4766354 593160
0.024637429 -0.051529538 0.4776957 790543
0.033057425 -0.050483402 0.4784286 4080965
-0.023471728 -0.042431876 0.47642606 3488312
-0.014797504 -0.043649495 0.4751763 987148
-0.0057390626 -0.046629768 0.47378147 658440
0.0045292112 -0.048665006 0.47125015 527367
0.015766172 -0.047883116 0.47139359 527624
0.025623746 -0.045932323 0.47307041 856592
0.032735888 -0.044966549 0.47378564 4147016
-0.023378322 -0.03524857 0.47112119 2895661
-0.016754631 -0.037574258 0.47080323 1052941
0.034538858 -0.033829819 0.47104162 4344393
-0.023541678 -0.023217678 0.47029531 3224625
-0.017479543 -0.020738546 0.47000012 2631455
0.017501198 -0.020753255 0.47033343 1579283
0.026188543 -0.023044348 0.47173432 1184272
0.03355388 -0.02551657 0.47240004 3093557
-0.023504401 -0.016079908 0.47458079 4474693
-0.015353351 -0.015789535 0.4750897 2763039
-0.0052414266 -0.015509426 0.4752461 2828576
0.0047916695 -0.015557373 0.47500002 3223332
0.014654229 -0.016703175 0.47520214 2828576
0.025112255 -0.017494503 0.47609895 1776406
0.0340463 -0.017706847 0.4762207 4409673
0.0089995032 -0.090027012 0.48899999 658183
0.016004389 -0.093667865 0.48825279 592650
0.02434596 -0.093894601 0.48817086 790286
0.033386644 -0.091628194 0.48900008 2830129
-0.030179838 -0.083622329 0.48900005 7634814
-0.028580686 -0.083622329 0.48900011 5068119
-0.0013950163 -0.08122056 0.48900005 395011
0.005449913 -0.083967514 0.48760146 526597
0.014954992 -0.084946722 0.48541814 592391
0.024862301 -0.085023567 0.48525348 790286
0.033160787 -0.085048534 0.48568758 2435627
-0.030154122 -0.075154476 0.48858336 7634560
-0.02573695 -0.07348337 0.48884815 2764334
-0.014949673 -0.072377041 0.4887467 789510
-0.0047431197 -0.074775003 0.48766622 526596
0.00507463 -0.074967146 0.48612961 395010
0.015110117 -0.075025789 0.48456755 395267
0.025003372 -0.0748353 0.48460293 724490
0.034550384 -0.074676841 0.48654163 3488829
-0.030137109 -0.065114267 0.48830765 7700096
-0.02504527 -0.064889655 0.48881561 2171940
-0.014884635 -0.064914338 0.4878884 658182
-0.0049630427 -0.065173745 0.4857291 592133
0.0049581826 -0.065047324 0.48476961 395010
0.015027425 -0.064901181 0.48438969 395011
0.024929702 -0.065125369 0.48468921 723976
0.034854893 -0.064950421 0.48753291 3159607
-0.03017984 -0.056802697 0.48900005 7963009
-0.024691006 -0.055261567 0.48781592 2896175
-0.014989652 -0.055040322 0.48518136 856075
-0.0055952868 -0.056627598 0.48256251 723976
0.0049279667 -0.057940338 0.48180008 658183
0.015532863 -0.057666253 0.48173249 658184
0.02516518 -0.056657523 0.4820604 790029
0.034386594 -0.055800989 0.48457018 3817281
-0.02430246 -0.047306702 0.48283076 4409928
-0.015592286 -0.048514187 0.48099989 987405
-0.022585141 -0.010976777 0.48057145 5264208
-0.014800837 -0.011030491 0.482923 3881775
-0.0049256962 -0.011011311 0.48208335 3683882
0.0052287662 -0.01107094 0.48099998 3289126
0.01590235 -0.012284061 0.48123807 3618089
0.025025599 -0.012584016 0.48195839 3223590
0.033224378 -0.012556733 0.4808889 4672845
-0.021610461 -0.0078650163 0.48412001 5658963
-0.015441176 -0.0060421554 0.48706871 4342584
-0.0047720419 -0.0055583809 0.48635188 3684653
0.0049577709 -0.0051110568 0.48479927 3618604
0.014919386 -0.0051488029 0.48533151 3947311
0.024896985 -0.0051036547 0.48658925 4407865
0.032819875 -0.0071573872 0.48492074 6515305
-0.012089378 0.00133986 0.48899996 6711652
-0.0049909106 0.0016381232 0.48841682 4539966
0.0049856594 0.0025191375 0.48743415 4869187
0.014442667 0.0021914584 0.48659992 4934468
0.020864384 0.0016300181 0.48600003 5723986
0.019382663 -0.13067354 0.49900001 789516
0.025094174 -0.13067354 0.49899992 987409
0.031213643 -0.13067357 0.49900004 1711904
0.0091835419 -0.12046158 0.49899998 723976
0.015967431 -0.12438818 0.49750993 723721
0.024973184 -0.12476412 0.49659851 987152
0.032243058 -0.12464835 0.4969047 2237991
0.0060630734 -0.11388149 0.49800035 723719
0.015050933 -0.11508617 0.49434778 723720
0.024926642 -0.11501472 0.49375007 987408
0.033184916 -0.11475034 0.49518165 3290681
-0.024269579 -0.10085459 0.49899986 1842716
-0.014528114 -0.1014035 0.49893758 789769
-0.0043099662 -0.10391652 0.49800017 723720
0.0050601964 -0.10497016 0.49526858 592135
0.015068276 -0.10495982 0.49143758 658185
0.025013197 -0.10505924 0.49086183 856080
0.033470087 -0.10487374 0.4921557 3225145
-0.024140244 -0.094640873 0.49637184 1776924
-0.014780779 -0.094713561 0.49656409 789769
-0.0051405006 -0.095107526 0.49513328 658183
0.0050302395 -0.09503153 0.49208689 592134
0.013552291 -0.097419001 0.49041149 592394
0.02646805 -0.098324418 0.49009076 921872
0.033475652 -0.096290357 0.49031225 2962230
-0.023980284 -0.085275166 0.4930872 1711130
-0.015049718 -0.085107408 0.49323386 723976
-0.005185605 -0.085411549 0.49152294 592390
0.0027588096 -0.088139348 0.49018741 526597
-0.023448469 -0.077702552 0.49037021 1447959
-0.015252544 -0.077497542 0.49041411 855304
-0.008608791 -0.078979991 0.48999998 592390
-0.011816532 -0.00236789 0.49013323 4079412
-0.007006363 -0.0007632359 0.48999992 3947827
-0.013015466 0.00044009901 0.49000001 4605247
0.0098191202 0.0044512148 0.49000001 6514789
0.010620333 0.0044512148 0.49000001 6646375
0.0089514395 -0.14120889 0.509 789769
0.015781766 -0.14286926 0.50785947 723978
0.024450246 -0.14352922 0.50782019 987409
0.033089958 -0.14219393 0.50845456 2829617
-0.0030550584 -0.13256752 0.50849998 658183
0.005111095 -0.13454285 0.50672066 658183
0.014837016 -0.13493492 0.50337613 723977
0.025228022 -0.13580124 0.50273186 1052945
0.032831002 -0.13488531 0.50268757 2566702
-0.024755938 -0.12037564 0.50899994 2039582
-0.013457974 -0.12234402 0.50856107 986891
-0.0050928979 -0.12493413 0.50672084 789512
0.0046603358 -0.12503113 0.50262278 723719
0.012018591 -0.12710126 0.50060004 723976
0.03372889 -0.12970753 0.5 2962229
-0.024645885 -0.11487202 0.50674403 1974046
-0.01509803 -0.11499727 0.50562799 921098
-0.005133376 -0.1148783 0.50224972 789511
0.0028910241 -0.11757121 0.50044191 723719
-0.024384039 -0.10584953 0.50135225 1908253
-0.015035886 -0.10647044 0.5012334 855562
-0.0069499984 -0.10788266 0.50033343 789512
0.006152045 -0.1624312 0.51866692 855306
0.015125278 -0.16373666 0.51776552 789770
0.024987148 -0.16410105 0.51755595 1053459
0.032871082 -0.16297725 0.51719165 3093301
-0.012890094 -0.15245116 0.51863629 986891
-0.0049354858 -0.15404193 0.51696992 855305
0.0048443978 -0.15508422 0.51621938 789769
0.014916843 -0.15485576 0.51393348 789516
0.024956629 -0.15497762 0.51352036 1053202
0.034813415 -0.15487546 0.51699138 4738128
-0.031182734 -0.14100921 0.51900005 7370103
-0.023644907 -0.14257064 0.51862741 1579286
-0.014926458 -0.14492434 0.51673943 986891
-0.00516121 -0.14488935 0.51351172 789513
0.0047247051 -0.145226 0.51166409 789512
0.013586787 -0.14707923 0.51068842 789514
0.025496284 -0.1484807 0.51108336 1053459
0.035349924 -0.14612603 0.51422662 5396057
-0.031177726 -0.13504033 0.51891685 7370360
-0.025013313 -0.13506374 0.51687074 1974046
-0.01510997 -0.1347561 0.51347625 986891
-0.0063877935 -0.13612077 0.51103437 723976
0.0014637815 -0.13856395 0.51000011 658183
-0.031122645 -0.12844056 0.51800007 7304823
-0.024842231 -0.12523267 0.51163 1974046
-0.01621088 -0.12620562 0.51095396 1052684
-0.0089601697 -0.12979679 0.51000005 855305
-0.0032369655 -0.18188255 0.52844453 855562
0.0055395751 -0.18325847 0.52769458 986892
0.01528788 -0.18374361 0.52705753 855563
0.024290528 -0.18426634 0.52727598 1184531
0.033029586 -0.18271607 0.52765781 3553852
-0.012411608 -0.1726559 0.52853841 1117964
-0.0048387232 -0.17481858 0.52673709 855305
0.0048939972 -0.17509912 0.52449584 855562
0.015063397 -0.17503448 0.52346885 789772
0.025044611 -0.17534649 0.52287823 1119251
0.033227272 -0.17484103 0.52330756 3685183
-0.024763094 -0.16342939 0.52761436 1907996
-0.014578461 -0.16494969 0.52595419 1118477
-0.0048693614 -0.16496822 0.52304673 855305
0.0039667571 -0.16672085 0.52139992 855305
0.015135452 -0.16891311 0.52035719 789771
0.026575373 -0.16894938 0.52000022 1185044
0.033573799 -0.16865151 0.52083331 3882818
-0.031302895 -0.15050882 0.52100003 6844787
-0.024967337 -0.15517607 0.52351612 1973788
-0.016103107 -0.1561355 0.52141023 1118477
-0.0069512674 -0.15841234 0.52014297 921098
-0.031282868 -0.146152 0.52066666 7041398
-0.025845289 -0.1470948 0.52082193 2105632
-0.01933907 -0.14894295 0.52000004 1052941
-0.010351005 -0.20071347 0.53900003 1184270
-0.0047253394 -0.20174553 0.53778124 1052684
0.005050397 -0.2016023 0.53666669 1184270
0.015138708 -0.20156832 0.53657573 986895
0.024825051 -0.20181918 0.53724247 1381653
0.03101409 -0.20078151 0.53800005 1909539
-0.020927023 -0.191889 0.53900003 1644821
-0.01423073 -0.1937485 0.53748602 1250063
-0.0049861846 -0.19524902 0.53564471 987148
0.0049013789 -0.19526625 0.53416985 1118477
0.015051722 -0.19519418 0.53354549 921102
0.024863565 -0.19512425 0.53367972 1315860
0.034041513 -0.19495875 0.53584784 4605767
-0.031638779 -0.18391936 0.53633326 5856867
-0.02516048 -0.18508363 0.53691041 2039582
-0.015062336 -0.18501109 0.53399181 1250063
-0.0057140398 -0.18610859 0.53171259 921355
0.004360192 -0.18809806 0.53056818 1052684
0.013653847 -0.1886849 0.52999997 855307
0.026551628 -0.18884827 0.5305652 1381909
0.034654703 -0.18751933 0.531425 5132369
-0.031746626 -0.17522928 0.53469557 6317415
-0.02505501 -0.1753713 0.53303677 1973789
-0.016121032 -0.17586517 0.53089386 1250063
-0.0088782404 -0.17914011 0.53000003 986891
-0.031493872 -0.16725871 0.53242856 5856867
-0.025684768 -0.1683744 0.53064299 2171168
-0.019710975 -0.16872759 0.53000003 1513235
-0.030126609 -0.20063841 0.546 3750203
-0.023761526 -0.20325844 0.54612017 1710872
-0.015206756 -0.20244078 0.54163158 1381649
-0.0090457546 -0.20285402 0.54000002 1052684
0.034953222 -0.20247626 0.54082942 5658197
-0.030060399 -0.19752359 0.54479998 3618617
-0.025115453 -0.19522041 0.54207224 2039581
-0.015881998 -0.19814606 0.5405556 1315856
-0.031470645 -0.2031292 0.55080009 4869200
-0.028095027 -0.20626806 0.55114293 2566185
-0.032145962 -0.19940692 0.55000001 5724254
-0.2708177 -0.18814717 0.59100002 4209216
-0.26888499 -0.18814717 0.59100002 5788763
