# .PCD v0.7 - Point Cloud Data file format
VERSION 0.7
FIELDS x y z rgb
SIZE 4 4 4 4
TYPE F F F U
COUNT 1 1 1 1
WIDTH 129
HEIGHT 1
VIEWPOINT 0 0 0 1 0 0 0
POINTS 129
DATA ascii
0 0 0 10258548
-0.22484143 -0.16252728 0.43550003 6572086
-0.22615685 -0.16557366 0.4447273 6440757
-0.22324952 -0.17067987 0.45505878 8944507
-0.2259227 -0.16607265 0.45358071 6832946
-0.11351606 -0.18109797 0.48229995 9603977
-0.10452349 -0.18159465 0.48553023 9998474
-0.095186025 -0.1826541 0.48784503 9932938
-0.084918112 -0.18301956 0.48820421 9932682
-0.074947439 -0.18302025 0.48833349 9866889
-0.066237539 -0.1831965 0.48817658 10063752
-0.059642024 -0.18411888 0.48800004 8418934
-0.11168329 -0.17902204 0.48388234 9472132
-0.10600417 -0.17853628 0.48690751 9801609
-0.094192132 -0.18111551 0.49224454 9932938
-0.084828772 -0.1813623 0.4934738 9932938
-0.074971326 -0.18126692 0.49332803 9932681
-0.064259611 -0.18178794 0.49281719 9932166
-0.054955095 -0.18307984 0.49512005 8353137
-0.045022402 -0.18374956 0.49653214 6972001
-0.035110209 -0.18366794 0.49652523 6709343
-0.025210395 -0.18445599 0.49603084 6511963
-0.01483345 -0.18514451 0.49720228 6511709
-0.0046608197 -0.18420275 0.49604174 7497831
0.0050611659 -0.18311116 0.49508455 9931910
0.015269688 -0.18300816 0.49472031 8946817
0.024888964 -0.18294604 0.49497554 9209986
0.034878336 -0.1835563 0.494948 9736329
0.045058884 -0.18373565 0.49578363 9801866
0.055062242 -0.18339786 0.49534464 9210246
0.063088447 -0.18350892 0.49443501 8092798
-0.11076351 -0.17765343 0.49000001 9735560
-0.10421495 -0.17690313 0.49361548 9604486
-0.095734045 -0.17827654 0.49555811 9867401
-0.084902965 -0.17898186 0.49723366 9998729
-0.074985795 -0.17860897 0.49713323 10064266
-0.064976051 -0.17857361 0.49714285 10129288
-0.058555108 -0.17888504 0.49807695 9800324
0.0087579908 -0.1791923 0.498 9866889
0.014970321 -0.17914084 0.49789467 8027776
0.025150595 -0.17908165 0.49834791 8158330
0.056099493 -0.17928255 0.49900001 8289919
-0.05318867 -0.18043584 0.50050002 9208443
-0.044936363 -0.18077137 0.50199991 8089966
-0.034675922 -0.18077131 0.50199991 7366501
-0.024285482 -0.18162176 0.50269437 7498342
-0.01503406 -0.18187279 0.50392866 8287345
-0.0062559424 -0.18145749 0.50207287 9602689
0.0028668444 -0.18043584 0.50049996 10261645
0.025757633 -0.18066508 0.5 8421757
0.034955237 -0.18086974 0.5 9604743
0.044766013 -0.18086971 0.5 9736329
0.054343376 -0.18085359 0.50033331 9078660
0.060420349 -0.18082136 0.50099999 8158334
-0.10159014 -0.17475386 0.50362509 9604484
-0.094560973 -0.17405035 0.50543934 9801607
-0.085047573 -0.17554711 0.50519037 10064523
-0.075132236 -0.17532153 0.50480866 10195852
-0.064992368 -0.17556484 0.50478357 12298384
-0.054782547 -0.17649932 0.50484431 11574410
-0.044918995 -0.17670849 0.50553769 10588546
-0.035133317 -0.17689022 0.50576216 9865598
-0.025654402 -0.17793925 0.50679219 9208700
-0.014479635 -0.1789955 0.50728571 9998216
-0.0050129858 -0.17825861 0.50689644 10130058
0.0049794689 -0.17768607 0.50448418 9932936
0.014683265 -0.1762612 0.50503361 9538438
0.024955513 -0.17662615 0.5047946 8027262
0.035433721 -0.17594936 0.50407541 9209987
0.044796403 -0.17495315 0.50368923 9210243
0.052995265 -0.17649531 0.50157309 8881279
0.038497414 -0.16912545 0.509 8815744
0.043023601 -0.16891779 0.50837493 8158332
-0.090443984 -0.17020831 0.51100004 9670792
-0.085204855 -0.17123228 0.51023412 10064780
-0.074953638 -0.17145197 0.51046312 10327181
-0.064998522 -0.17165786 0.51058066 12824468
-0.055094548 -0.1717494 0.511877 12823955
-0.044993509 -0.17179629 0.51200026 13021334
-0.034556735 -0.17196977 0.51265514 12693141
-0.024862941 -0.17319249 0.51323199 12167059
-0.015482308 -0.17484818 0.51360363 10392716
-0.0051820455 -0.17410204 0.51490015 9998731
0.004534971 -0.17390287 0.51383042 9932938
0.015215492 -0.17255023 0.51406384 9932938
0.024922144 -0.17230128 0.51449543 9670022
0.03304686 -0.17177382 0.51214045 9209473
0.047746126 -0.17112768 0.51000005 8289661
-0.090443991 -0.1689534 0.51100004 9539208
-0.084470876 -0.1679126 0.51218963 9933452
-0.075028494 -0.16726857 0.51338774 10524556
-0.065079384 -0.16633253 0.51476109 12363662
-0.054949548 -0.16526811 0.51672596 12363920
-0.045329988 -0.16542234 0.51694077 12297869
-0.035403688 -0.16722137 0.51692849 12495504
-0.025723016 -0.16840927 0.51778728 13021848
-0.017604614 -0.16904937 0.51900005 10721422
0.019735208 -0.16947421 0.51900005 9932936
0.025992682 -0.1695132 0.51860005 9867401
0.036058284 -0.16795036 0.51525015 8684160
0.043125544 -0.16807318 0.5124445 8289918
-0.056532562 -0.15981896 0.51800007 10458251
-0.046882432 -0.15842809 0.51900005 10392716
-0.012100711 -0.17087393 0.52127278 10195851
-0.0049046739 -0.17094626 0.52220452 10064524
0.0043335734 -0.17083363 0.52151227 9998730
0.014671627 -0.17107779 0.52000016 9932937
-0.041972123 -0.16151933 0.52020001 12495505
-0.034781195 -0.16285396 0.52164364 11903111
-0.024614194 -0.16402443 0.52335089 12232852
-0.014874289 -0.16526228 0.52574867 10261388
-0.0050808587 -0.16688423 0.52668744 10130059
0.0056804838 -0.167487 0.52587235 9998730
0.015104717 -0.16729127 0.52538306 9932936
0.025166085 -0.16597287 0.52570885 9406079
0.032326601 -0.16602135 0.52316087 9341830
-0.051224098 -0.15873332 0.52000004 10326925
-0.044451844 -0.15884782 0.52037507 10655371
-0.034617376 -0.15822284 0.52345103 10984075
-0.025934495 -0.15840632 0.52611935 11246992
-0.01707883 -0.15888241 0.52900016 10523788
-0.010254985 -0.16125841 0.53400004 10524046
-0.0049995454 -0.16224937 0.53218192 10655632
0.0043850997 -0.16373 0.53072894 10327181
0.015029388 -0.16200227 0.53101772 9144451
0.021256186 -0.16226268 0.53050005 8486007
0.0097908694 -0.15978345 0.53200001 8750465
0.014708791 -0.15964995 0.53155559 8815487
0.020664483 -0.15978345 0.53200001 8158591
