# .PCD v0.7 - Point Cloud Data file format
VERSION 0.7
FIELDS x y z rgb
SIZE 4 4 4 4
TYPE F F F U
COUNT 1 1 1 1
WIDTH 149
HEIGHT 1
VIEWPOINT 0 0 0 1 0 0 0
POINTS 149
DATA ascii
0 0 0 5459516
-0.063184559 0.046288889 0.3003816 10903081
-0.059839945 0.045794848 0.30060005 11172180
-0.10294992 0.066763572 0.31600001 1580568
-0.022304345 0.0588038 0.32745454 10378277
-0.017540677 0.058493402 0.32762951 9788463
-0.023097273 0.06345661 0.32845843 5979168
-0.017689204 0.062954277 0.32865527 9525808
-0.021115385 0.067477293 0.33105263 4141341
-0.015968122 0.065864801 0.33095998 8146990
-0.020462364 0.070714064 0.336 5455395
-0.018519275 0.070810214 0.33733332 3682080
-0.014470615 0.074623115 0.34584522 6246463
-0.014665768 0.078202471 0.3518261 4931374
-0.0087743206 0.07897988 0.35200009 8227202
-0.013298666 0.083412468 0.35601851 6770485
-0.0063518081 0.085873872 0.35636717 5791576
0.0014504334 0.088663623 0.35847834 6451565
-0.0063561746 0.090542257 0.35900009 5132616
0.0019109045 0.090542257 0.35900003 6122601
-0.040775008 0.12324318 0.35500002 8486251
-0.039614066 0.12324318 0.35500002 7760984
-0.021752669 0.028934332 0.36900008 9986361
-0.019756928 0.028725211 0.36900002 10117691
-0.021925304 0.032585204 0.36825928 9986104
-0.019715287 0.032883339 0.36822224 10117435
-0.030430356 0.076138996 0.36316666 11097104
-0.026267035 0.077156357 0.36392602 10443036
-0.030574104 0.08515738 0.36488226 6626565
-0.025136167 0.085032761 0.36612585 10442522
-0.016497228 0.08677911 0.3628349 9263150
-0.0022042992 0.089910388 0.36000001 6188395
-0.030583976 0.092653073 0.36499995 4065792
-0.025483588 0.094338246 0.36775869 10506770
-0.014610901 0.09322267 0.36462149 7885104
-0.004688289 0.094933964 0.36051428 5330509
0.0017877782 0.094986282 0.36035383 4477262
-0.026168467 0.10348864 0.36852625 10767882
-0.0031044211 0.10078148 0.36200002 4672061
-0.041326776 0.11984271 0.36500001 6171406
-0.041001931 0.12145811 0.36566666 6106385
-0.036844872 0.12541677 0.36588463 7360568
-0.036457192 0.13238908 0.36786678 10721662
-0.032945924 -0.013896919 0.37875915 8729856
-0.027716588 -0.015063806 0.37883359 9456152
-0.032153577 -0.0082308743 0.37762797 8598016
-0.028222876 -0.007795746 0.37733334 8994832
-0.02313284 0.0051791468 0.37692207 10052153
-0.018100182 0.0062794299 0.3759999 10053697
-0.023114879 0.012292727 0.37454548 10117946
-0.01823866 0.011899465 0.37500003 10118976
-0.024175461 0.027411837 0.37140003 9920566
-0.018600477 0.028500171 0.36999997 10117947
-0.023440458 0.034860663 0.37 9985848
-0.018600473 0.030620337 0.37 10117691
-0.021491613 0.097603843 0.37051347 9325849
-0.018511686 0.097299546 0.37100002 9194780
-0.032101616 0.10937269 0.375 3608576
-0.02399057 0.10577881 0.37108868 9651980
-0.017948776 0.10203785 0.37370461 9062936
-0.040977325 0.11711678 0.37390625 5579015
-0.035287619 0.11549142 0.37580457 4068609
-0.026224492 0.11508676 0.37230858 9651209
-0.041540816 0.12039297 0.37225002 6104842
-0.033365384 0.12329507 0.37188098 7619876
-0.025120173 0.12507896 0.37272829 10509603
-0.017098529 0.12646955 0.37441453 8809294
-0.032681752 0.13521349 0.37192985 6313025
-0.024789527 0.13502932 0.37312561 8801819
-0.016742216 0.13411848 0.37449676 6314054
-0.032474115 0.1401789 0.37300003 4867380
-0.026390919 0.14027284 0.3732501 10779207
-0.033402197 -0.021003805 0.38010004 9189376
-0.02667379 -0.021442492 0.38073656 9720098
-0.036077324 -0.017530859 0.37999976 8992768
-0.023637965 -0.015775044 0.3801738 10117948
-0.051158477 -0.071642779 0.39599997 9465431
-0.045415565 -0.072178423 0.39599994 9058564
-0.036875192 -0.071318112 0.39592853 9254912
-0.050340574 -0.065773718 0.39599997 9191696
-0.045069344 -0.065180711 0.39586502 9190147
-0.035005406 -0.064883247 0.39428565 9386496
-0.02843927 -0.063493349 0.39207706 9650437
-0.043703973 -0.058854066 0.39479086 9386752
-0.034294859 -0.055541765 0.39175418 9387008
-0.02804512 -0.055328581 0.39123166 9783572
-0.042649653 0.077691361 0.40600011 3544578
-0.036740508 0.077747151 0.40652931 4204049
-0.042938225 0.084682792 0.40648073 3741442
-0.037291627 0.084569581 0.40711677 3937537
-0.04273092 0.09482047 0.40743849 3938051
-0.037567526 0.094831012 0.40886474 2952960
-0.041745268 0.10246526 0.40831721 3741186
-0.03754108 0.10294954 0.40820041 2756352
-0.040247124 -0.15122585 0.41900003 10435840
-0.037506647 -0.15122584 0.41900009 10501632
-0.040247124 -0.14951089 0.41900003 10435840
-0.037506644 -0.14951091 0.41900012 10501632
-0.052984729 -0.16034943 0.42500001 9604489
-0.053308673 -0.15751806 0.42338362 9468268
-0.045150202 -0.15646394 0.4228923 10435840
-0.034440678 -0.15525411 0.42067078 10567168
-0.024925066 -0.15454185 0.42055479 9913874
-0.018729506 -0.15449332 0.42042866 8800806
-0.074474797 0.045665685 0.42432511 10377508
-0.069730476 0.046467915 0.42330003 10312229
-0.070257917 0.046937503 0.43077779 10246949
-0.068849169 0.046937492 0.43077782 10246949
-0.074322686 0.052863225 0.43199968 10640678
-0.069044501 0.052018445 0.43200004 10443558
-0.17818163 -0.073779754 0.4555001 9331533
-0.18075629 -0.08048664 0.46400002 5514514
-0.17539507 -0.080923915 0.4648751 3349775
-0.1807624 -0.075887345 0.46465224 8603697
-0.1757535 -0.074829571 0.46687889 8143919
-0.18075629 -0.069091797 0.46400002 8734253
-0.1743385 -0.067056097 0.46417078 8801076
-0.17268194 -0.071442172 0.47200006 8665121
-0.17316882 -0.068624265 0.47122228 9524285
-0.092357703 -0.040308088 0.48800001 9346976
-0.088367976 -0.040308088 0.48800001 9281440
-0.094709404 -0.034466181 0.48749569 10198933
-0.087071322 -0.034715429 0.48799995 9873317
-0.093540192 -0.029015856 0.48770371 10393477
-0.087889224 -0.029282596 0.48799995 10661542
-0.14741722 -0.087505415 0.49742869 10247726
-0.043491285 0.13485982 0.4971666 3411456
-0.039533131 0.13565123 0.49599999 6560768
-0.043152522 0.14154848 0.49899995 3477248
-0.039772239 0.14178191 0.49899998 4983808
-0.15164493 -0.090776645 0.50200003 10442784
-0.15367453 -0.084993601 0.50531507 10573341
-0.1529173 -0.083640389 0.51374209 10639135
-0.14993489 -0.083527096 0.51300001 10639138
-0.15490809 -0.079946242 0.51700002 10573597
-0.15547621 -0.082667939 0.52900004 10639135
-0.15381545 -0.092786767 0.57275015 11120809
-0.14899212 -0.092989288 0.57400006 11252652
-0.15373611 -0.087583788 0.57245016 10326918
-0.14899211 -0.087820664 0.574 10595497
0.025725264 -0.19510032 0.58113939 9214877
0.025374074 -0.18939315 0.58000004 8886427
-0.15303183 -0.082043104 0.78754544 9150112
-0.1485672 -0.083475173 0.78499991 9018526
-0.15383963 -0.07808768 0.78900003 9084319
-0.16025218 -0.081626229 0.79200006 9281698
-0.15593268 -0.083796255 0.79130757 9215904
-0.16025218 -0.078384593 0.79200006 9150111
-0.15830964 -0.078384586 0.79200006 9150111
