# .PCD v0.7 - Point Cloud Data file format
VERSION 0.7
FIELDS x y z rgb
SIZE 4 4 4 4
TYPE F F F U
COUNT 1 1 1 1
WIDTH 345
HEIGHT 1
VIEWPOINT 0 0 0 1 0 0 0
POINTS 345
DATA ascii
0 0 0 11312008
-0.12188778 0.068494357 0.34000003 5318936
-0.11853869 0.069048494 0.34166673 9127714
-0.12219869 0.07377512 0.34588617 3942938
-0.11623844 0.074696191 0.34638289 7291690
-0.10939206 0.077227756 0.34800002 8224379
-0.12663792 0.024425345 0.3529166 8666132
-0.13180791 0.075361766 0.35858983 7093273
-0.126064 0.077784345 0.35391998 7093790
-0.11541221 0.078758955 0.35058343 6831916
-0.12431516 0.08233048 0.3570652 7946781
-0.11474211 0.085197508 0.35510355 5194296
-0.10894102 0.087942012 0.35670376 8290168
-0.1122003 0.091472924 0.35721436 3945259
-0.10880078 0.092083037 0.35878581 7631980
-0.12600864 0.027018731 0.3650806 9522725
-0.12652807 0.032105286 0.36682823 9522469
-0.13492054 0.077672765 0.36029044 10767117
-0.12994063 0.07989078 0.36000001 8733465
-0.13454036 0.085243441 0.36413765 10045455
-0.12644242 0.086899325 0.36427778 8733465
-0.13579014 0.094008639 0.36799434 10044686
-0.12522259 0.092003211 0.36765006 8732952
-0.11513063 0.092937261 0.36150002 6109990
-0.10773262 0.094464742 0.35999995 7236196
-0.13892108 0.10031381 0.36899999 10961408
-0.15091853 0.12664062 0.36133906 8283219
-0.14825499 0.12691471 0.36536437 6240552
-0.15069096 0.13143624 0.36219996 12691348
-0.14721566 0.1341415 0.36722958 8087124
-0.15136188 -0.023548653 0.37900004 8334849
-0.14563115 -0.021635976 0.37884712 8530944
-0.13524932 -0.020446181 0.37899995 8596737
-0.12905218 -0.020446181 0.37899998 9653794
-0.14268157 -0.01571027 0.37699199 8399872
-0.13493608 -0.014805223 0.37710387 8334338
-0.12895271 -0.016144464 0.3778865 9588259
-0.14063424 -0.0088960445 0.37599999 8203008
-0.13456887 -0.0050769253 0.37592584 8203525
-0.12817889 -0.0039412291 0.37512285 9654053
-0.13307142 0.0046150857 0.37606144 8533775
-0.12579948 0.0063032624 0.37728998 9588520
-0.11974952 0.0093129445 0.37800002 9655087
-0.13210829 0.013040075 0.3752557 9126938
-0.12647617 0.013055477 0.37673497 9654312
-0.11974952 0.010860089 0.37800002 9655085
-0.12288003 0.029259337 0.37066665 9654314
-0.1232989 0.031817719 0.37038457 9654312
-0.13268657 0.097523823 0.37092558 8929299
-0.12641813 0.096593134 0.37165326 8339480
-0.14077623 0.10664904 0.37268189 10436609
-0.13466084 0.10476419 0.37142003 9387530
-0.12841807 0.10372081 0.37301612 8666384
-0.14187662 0.11579284 0.37707293 10042372
-0.13494891 0.1150569 0.37416339 9388303
-0.12946555 0.11372793 0.37341186 8864020
-0.15117797 0.12393253 0.37700012 6366987
-0.14469697 0.12495418 0.37373993 7815202
-0.13523383 0.12508327 0.37536624 9324057
-0.12936203 0.1250599 0.37900007 9208955
-0.14281984 0.13485539 0.37030408 5058074
-0.13500506 0.13488844 0.37341613 7618075
-0.12907204 0.13485162 0.37551069 7563618
-0.13329352 0.14044301 0.37242863 9267017
-0.15522246 -0.06328468 0.38866675 9207154
-0.15371861 -0.053409282 0.38756457 8801841
-0.14505418 -0.053103518 0.38866678 8728320
-0.13535872 -0.052899599 0.38850012 8859649
-0.12845127 -0.053217869 0.38781831 9784869
-0.1533256 -0.04516704 0.3854692 8799525
-0.14500517 -0.045220096 0.3863396 8793600
-0.13507754 -0.045010582 0.38647398 8925186
-0.12923294 -0.044394772 0.38634136 9653539
-0.15288581 -0.035085522 0.38244089 8665621
-0.14502995 -0.035073772 0.38334581 8727808
-0.13487464 -0.03500583 0.38391438 8991235
-0.12918906 -0.035276473 0.38570738 9785382
-0.15308069 -0.027546162 0.38039497 8797720
-0.14462815 -0.026289728 0.38093081 8662016
-0.13494886 -0.02556633 0.38097337 8793602
-0.12918802 -0.024957273 0.3807576 9719332
-0.13019425 -0.018026596 0.38700002 9654311
-0.12924506 -0.018026598 0.38700005 9720104
-0.16062383 0.1179296 0.38700002 5052933
-0.15513617 0.11841004 0.386971 3477762
-0.1473178 0.11661 0.38460499 5510656
-0.16055821 0.12142617 0.38319999 5840132
-0.15532696 0.12248142 0.38257232 4855811
-0.14808698 0.12074613 0.38191307 5116928
-0.13063538 0.12227923 0.38000003 8345669
-0.12939268 0.12227923 0.38000003 9470841
-0.12413846 -0.11136322 0.39523098 9521186
-0.11835338 -0.11055257 0.39500001 9656373
-0.13093856 -0.10446722 0.39400002 8595968
-0.12498308 -0.1051441 0.39577025 9455136
-0.11855937 -0.10491181 0.39568749 9590840
-0.12404485 -0.094509557 0.39580655 9785643
-0.117572 -0.094544023 0.39504203 8280389
-0.14756128 -0.080441155 0.39800003 8399874
-0.13318539 -0.081328727 0.39388883 8793601
-0.12437286 -0.088431098 0.39786771 9720365
-0.11890768 -0.088768512 0.39619997 9066301
-0.15215464 -0.073925115 0.39420277 8270090
-0.14484559 -0.074765787 0.39370579 8465665
-0.13472572 -0.074740328 0.39359924 8793858
-0.12976156 -0.077933766 0.39466667 9188615
-0.15227297 -0.064940117 0.39099142 8664591
-0.14496213 -0.065094106 0.39174268 8728322
-0.13486654 -0.065178968 0.39311513 8859907
-0.12965779 -0.063381933 0.39552632 9390625
-0.15227161 -0.05820201 0.39006254 8532488
-0.14493529 -0.05811356 0.3904731 8793600
-0.1344028 -0.057777543 0.39049521 8925698
-0.12932104 -0.059162982 0.39300001 9785900
-0.13074905 -0.036216032 0.39537498 9785641
-0.12945606 -0.036216035 0.39537498 9720363
-0.13221191 -0.014970785 0.39599994 9654568
-0.16198415 0.07727997 0.39208171 4855554
-0.15499558 0.07524097 0.39139953 3480075
-0.14872776 0.075895295 0.39158538 4729364
-0.16252325 0.084296003 0.39475712 4855554
-0.15528564 0.084701575 0.3950392 3739904
-0.14917314 0.080917522 0.39366668 10833166
-0.1622777 0.094804414 0.39750448 4331010
-0.15566555 0.094831578 0.3976621 3870977
-0.16181093 0.10508619 0.39868638 4068354
-0.15544841 0.10423262 0.39889291 4199170
-0.16163664 0.11307447 0.39526039 4265219
-0.1556128 0.11368926 0.39440036 3214849
-0.14956312 0.11198561 0.39300001 7742978
-0.12455449 -0.13020676 0.40900001 9719857
-0.13315731 -0.12559256 0.40900022 8989953
-0.12666109 -0.12582085 0.40900016 9521446
-0.19526155 -0.11372244 0.40755734 4274743
-0.18975937 -0.11547531 0.40900001 4604997
-0.19536196 -0.1089288 0.40839541 6575438
-0.15471652 -0.082033589 0.40433338 8073226
-0.14764874 -0.082155138 0.40000004 8334594
-0.13064338 -0.081500247 0.40000001 8928274
-0.12648188 -0.083259031 0.40167475 9654827
-0.15391074 -0.079488568 0.40225002 7941895
-0.13066098 -0.073496237 0.40249988 9522469
-0.12824705 -0.076546498 0.40436286 9720364
-0.13114694 -0.066028379 0.4060857 9654312
-0.12940428 -0.063511819 0.40360004 9588522
-0.13140854 -0.032593638 0.40469995 9720364
-0.12994759 -0.033867355 0.40600002 9720366
-0.13181983 -0.026252789 0.40600002 9785901
-0.13197404 -0.015186257 0.40189815 9654569
-0.16148984 0.10498016 0.39999986 3740418
-0.15592717 0.10573817 0.40000015 3674114
-0.15165302 -0.15375672 0.41573352 8991757
-0.1449873 -0.1538431 0.41679388 9383168
-0.1350746 -0.1541779 0.41809309 9579776
-0.15083383 -0.149462 0.41600001 8858883
-0.14347407 -0.14525729 0.41462231 9317376
-0.13511339 -0.1451181 0.41574422 9383168
-0.12746108 -0.14266838 0.41812679 9782809
-0.14182968 -0.13805644 0.41336367 9186560
-0.13462354 -0.13524303 0.41189024 9121024
-0.12741956 -0.1349573 0.41367963 9389856
-0.13312456 -0.12884344 0.41016662 8989953
-0.12801637 -0.12785213 0.41045159 9388830
-0.19137257 -0.11180428 0.41340002 4142903
-0.18507969 -0.11309354 0.41699988 7697526
-0.17535174 -0.11418799 0.41728127 8553608
-0.1697347 -0.11281081 0.41900009 8225669
-0.19135652 -0.1092502 0.41540006 5327173
-0.18573727 -0.10894837 0.41799995 7696239
-0.17316028 -0.1090379 0.41900009 8553864
-0.16222908 -0.092840962 0.41855884 9197117
-0.15827492 -0.091350846 0.41499999 8139017
-0.19202502 -0.084140211 0.41855556 10262678
-0.18831828 -0.083886378 0.41842866 9802387
-0.16340962 -0.086388178 0.4151715 8876390
-0.1575921 -0.087008931 0.41180012 8073226
-0.13089266 -0.07078404 0.41000006 9720364
-0.12742436 -0.074519157 0.41320673 9589551
-0.13087589 -0.066919371 0.41100013 9786156
-0.12844445 -0.066960901 0.41390917 9851952
-0.16230159 0.055457231 0.4164564 9390622
-0.15699159 0.05617087 0.41615725 9390622
-0.16122633 0.06054914 0.41300002 9324575
-0.15770978 0.060369674 0.41393337 9259037
-0.13030802 -0.15433724 0.42000005 9449216
-0.12457404 -0.15452144 0.42254725 8599570
-0.11887435 -0.15588158 0.42792696 6898224
-0.13030802 -0.14849247 0.42000002 9318912
-0.12466386 -0.14724216 0.42296761 9781259
-0.11977239 -0.14991857 0.42900002 5450272
-0.18313856 -0.10051963 0.42899996 9407884
-0.17479415 -0.1009075 0.42631236 8947850
-0.16834311 -0.10085803 0.42499998 8619142
-0.19136427 -0.093860291 0.42198005 10459798
-0.18557414 -0.094850153 0.42565277 9605521
-0.17491153 -0.09475074 0.42391759 8751242
-0.16696195 -0.094885588 0.42132327 8749955
-0.19247587 -0.08365503 0.42025426 10130837
-0.18589926 -0.087784186 0.42330948 9605521
-0.17560828 -0.086938925 0.42116514 8751242
-0.16857852 -0.08874917 0.42014292 8619399
-0.19520631 -0.078355268 0.42000005 9671314
-0.12758589 -0.075300477 0.42359471 8080174
-0.16163462 0.048741624 0.42199996 9587744
-0.15921955 0.048741624 0.42199999 9587745
-0.16366284 0.051316239 0.42167574 9324060
-0.15908246 0.051881153 0.42133331 9456415
-0.11425257 -0.16016141 0.43200001 8865324
-0.11618791 -0.15432432 0.43151128 8077606
-0.12067276 -0.14779946 0.43042856 8932654
-0.11766994 -0.14872842 0.43337142 8343604
-0.18508883 -0.10169258 0.43000004 9473679
-0.12706944 -0.074282102 0.43337476 1708815
-0.12790996 -0.069598436 0.43400002 1381133
-0.20187822 -0.025190474 0.43767995 11906212
-0.19703935 -0.024143638 0.43685013 11708833
-0.1327872 0.046604533 0.43547705 10065038
-0.12783273 0.046791155 0.43742263 10921631
-0.13432531 0.055047508 0.43425968 9007201
-0.12729789 0.055249169 0.43670791 10197655
-0.13329116 0.063939534 0.4361012 6178875
-0.12783225 0.064150296 0.43700019 9539985
-0.1323669 0.070506804 0.43700001 9803154
-0.11514401 -0.16388825 0.44500008 9142138
-0.13141064 0.039129324 0.44220001 11710119
-0.12875158 0.039200116 0.44300005 11710119
-0.13120353 0.041091021 0.44064707 11644326
-0.12694189 0.044958536 0.44344699 11052960
-0.11643776 -0.16830826 0.44999996 9010813
-0.12657414 0.044557497 0.44999987 11184290
-0.12600327 0.051975667 0.4499999 10526874
-0.1201535 -0.17355467 0.46000001 8154217
-0.11864918 -0.17355467 0.46000001 9274758
-0.0031879668 -0.18127091 0.48405713 9933200
0.0041561988 -0.1824425 0.48790017 10131089
0.037384536 -0.18369557 0.48899999 10459026
0.044826657 -0.18308873 0.48738474 11247250
0.054751918 -0.1829443 0.48700014 12560537
0.064783499 -0.18317546 0.48761559 11837329
0.074930556 -0.18296526 0.48700011 11376783
0.085010119 -0.18334293 0.48700014 10653322
0.095844992 -0.18260536 0.4879806 11443606
0.10541686 -0.18254247 0.48784748 10524305
0.11396313 -0.18271762 0.48711121 10458513
0.12563339 -0.1823311 0.48701906 10524049
0.13496307 -0.18196613 0.48652321 10589842
0.14495893 -0.18137746 0.4857105 10261135
0.15066035 -0.18091583 0.48400003 9012872
-0.0033166958 -0.17826384 0.48635736 9736076
0.0026019961 -0.17953515 0.48857147 9999503
0.14559065 -0.17924136 0.48825932 9735563
0.15075706 -0.17939606 0.48820004 9341066
0.0079639358 -0.18132696 0.49077776 10131089
0.015143849 -0.18304835 0.49374989 10196626
0.025088673 -0.18290564 0.49521837 10327955
0.034409363 -0.18214452 0.49378547 10327956
0.044933539 -0.18150075 0.49190757 11707797
0.054870039 -0.18140601 0.49066645 13547935
0.065070733 -0.18145995 0.49047041 11771013
0.075092643 -0.18143386 0.49053043 12758420
0.085254446 -0.1817939 0.49048471 13547426
0.09374442 -0.18144737 0.49133334 13152929
0.10440614 -0.18135341 0.49133328 10655633
0.11581273 -0.18183231 0.49100006 10589841
0.12382683 -0.18155976 0.49126309 10655377
0.13497522 -0.18068789 0.4906154 10589840
0.14041694 -0.18046123 0.49000001 10589583
-0.00060030865 -0.17712684 0.49300003 9407624
0.0054095951 -0.17767474 0.49275878 9868175
0.014952565 -0.17813437 0.49773073 10065296
0.024739444 -0.17891648 0.49876922 10327956
0.03521182 -0.17784087 0.498043 10459284
0.045436151 -0.17748451 0.49692243 12167832
0.05509958 -0.17703302 0.49618101 13152920
0.06494461 -0.17707625 0.49617088 13481885
0.074971564 -0.17712258 0.49628904 13481884
0.084811158 -0.1770009 0.4961552 13350557
0.095165521 -0.17736532 0.49621361 12693150
0.10491615 -0.17715134 0.49540737 10590097
0.11504453 -0.17585766 0.49610871 10590095
0.12475702 -0.1767161 0.49539214 10524047
0.13492052 -0.17699017 0.49450415 9997706
0.1438363 -0.17709464 0.49160296 10260619
0.11647829 -0.16907057 0.49900004 10854293
0.016189309 -0.17444344 0.50052387 9736844
0.025244838 -0.17420466 0.50122195 10130832
0.034870248 -0.17307723 0.5007472 10394002
0.044377428 -0.17269303 0.50088078 11904918
0.054913018 -0.17175433 0.50076199 12099719
0.065142401 -0.17170183 0.50083894 12823443
0.075135946 -0.17172827 0.50080013 11507838
0.085028134 -0.17183311 0.50075412 11771527
0.095056273 -0.17215966 0.50073671 12298907
0.10503972 -0.17203513 0.50038028 10721424
0.11262389 -0.17104657 0.5 10524559
0.1271147 -0.17334034 0.5007143 9669769
0.13154319 -0.17378543 0.50200003 9012100
0.026007807 -0.16924325 0.50229412 9342088
0.035797574 -0.16721211 0.50114483 10130830
0.044919748 -0.16669904 0.5016976 11247764
0.054120254 -0.16748129 0.50274998 12168088
0.065063223 -0.16732787 0.50329024 12036503
0.074773245 -0.16737783 0.50306427 12233367
0.08440917 -0.16821817 0.50324166 12824730
0.095157959 -0.1686943 0.50275022 12036252
0.10413259 -0.16906902 0.5020358 10786960
0.11262389 -0.16940939 0.5 10984339
-0.28081709 0.069344506 0.57200003 10112283
-0.27690113 0.069292009 0.57246155 9914905
-0.28101346 0.07501772 0.57239997 10379578
-0.2756592 0.0754136 0.57490927 10377260
-0.26957923 0.079198487 0.57900006 10770472
-0.28130803 0.080723047 0.57300001 8802102
-0.27488792 0.08106029 0.57606679 10445891
-0.26957923 0.081094354 0.57900006 10641469
-0.31330392 0.20956595 0.68616676 9080463
-0.30919176 0.20982046 0.68700004 9276817
-0.31359601 0.2152407 0.68694454 8618885
-0.30814475 0.21267207 0.6884287 9013899
-0.31121579 0.21911967 0.69150001 8618374
-0.30723754 0.21739553 0.69337493 10393233
-0.31184912 0.2228535 0.69208705 6970978
-0.30725932 0.22344926 0.69564724 10390403
-0.30560181 0.23276073 0.69674987 5914936
-0.30517659 0.23819733 0.70100015 6049862
-0.31155586 0.22778691 0.71700001 10900770
-0.30546096 0.23926724 0.71100003 5782323
-0.30546096 0.24159533 0.71100003 5784636
-0.31259817 0.22980899 0.72900003 10044428
-0.31373233 0.23397243 0.7276088 10110998
-0.30841601 0.23942284 0.72200006 8468764
-0.31077713 0.24119592 0.72200006 6434852
-0.30829793 0.24155053 0.72200006 6237214
-0.31332883 0.23689909 0.73029393 9913361
-0.31250554 0.24431291 0.73407704 7155989
-0.31224731 0.25060666 0.73600006 5717041
-0.32173914 0.244858 0.75900006 6825484
-0.31987751 0.24485797 0.75900006 5906439
-0.32165703 0.2485472 0.76175004 6234891
-0.31814954 0.24769218 0.76200014 5644295
-0.32182428 0.25099978 0.76066667 6366735
-0.31733555 0.25475186 0.76000017 5645069
-0.3171165 0.25770381 0.77000004 6038796
-0.32028452 0.26270789 0.77500004 5645328
-0.31901729 0.26270789 0.77500004 6104589
