# .PCD v0.7 - Point Cloud Data file format
VERSION 0.7
FIELDS x y z rgb
SIZE 4 4 4 4
TYPE F F F U
COUNT 1 1 1 1
WIDTH 179
HEIGHT 1
VIEWPOINT 0 0 0 1 0 0 0
POINTS 179
DATA ascii
0 0 0 11114628
0.20814632 -0.062574916 0.39777273 2302755
0.21036862 -0.066105902 0.39800003 1710614
0.20716804 -0.055520263 0.39781451 4012861
0.2104698 -0.051834483 0.3985 2171426
0.20682918 -0.049018808 0.39900005 7696758
0.21057096 -0.049941029 0.39900002 2434341
0.215514 -0.10375713 0.40900016 855303
0.21551403 -0.094717383 0.40900019 789769
0.21512718 -0.084432229 0.40868908 1316113
0.20907868 -0.073454827 0.40748644 4078657
0.21246678 -0.075360104 0.40667248 1974045
0.2081572 -0.067171484 0.40261105 4143935
0.21169353 -0.06891574 0.403 1907994
0.20913655 -0.050721068 0.40000001 3617077
0.20959215 -0.047952052 0.40149999 6314337
0.21153775 -0.045009099 0.40226656 5459285
0.2132097 -0.038991921 0.40400001 8750217
0.22078335 -0.14059313 0.41900006 986891
0.21893923 -0.131254 0.41875008 855562
0.22075482 -0.13534728 0.41884613 921099
0.20742352 -0.12069963 0.41900012 1776408
0.21665956 -0.12374496 0.41777015 921099
0.22052343 -0.12788667 0.41760001 855562
0.19909272 -0.11260436 0.41519997 7959934
0.20533259 -0.11458008 0.41634268 2631464
0.21431626 -0.11517564 0.41455832 921355
0.20539492 -0.10490554 0.4147566 3223603
0.21259117 -0.105166 0.41170824 1052942
0.20694645 -0.095405027 0.41697162 3947327
0.21266825 -0.09501759 0.41371754 1316113
0.20769136 -0.085302204 0.41589737 4736330
0.21240894 -0.085544623 0.41218102 1513749
0.20814799 -0.076849714 0.41163144 5855069
0.21034257 -0.078839026 0.41000006 2566183
0.2137706 -0.16054766 0.42676196 987149
0.21652403 -0.15612622 0.42675591 987149
0.22141893 -0.15463862 0.42337841 921100
0.21816343 -0.14483054 0.42586827 1052684
0.22115894 -0.14599365 0.4221251 921355
0.20892973 -0.13233189 0.42878944 2105117
0.21579438 -0.1347633 0.42430395 1184013
0.22046043 -0.13850719 0.42100003 1052684
0.20604217 -0.12521015 0.42345211 3026222
0.21361859 -0.12675697 0.42158151 1184013
0.20311128 -0.11961245 0.42000005 4012609
0.20913753 -0.16151939 0.4387143 1973531
0.21120617 -0.1621659 0.43539277 1447442
0.20906943 -0.15952235 0.43900004 1973790
0.21305951 -0.15437257 0.43459389 1447442
0.2075129 -0.14348736 0.43647888 3881020
0.21452402 -0.14575048 0.43482831 1447444
0.20727541 -0.13563511 0.4321236 3551798
0.21278767 -0.13815142 0.43157142 1579028
0.2074845 -0.16458045 0.44435218 3552568
0.2113035 -0.16635886 0.44400007 1907739
0.20739263 -0.15476021 0.44077909 3749689
0.21026514 -0.15448301 0.44000003 2039840
0.20794074 -0.14883091 0.44000003 3815226
0.21134432 -0.14908026 0.44000003 2170912
-0.22246732 -0.18259431 0.48766688 10919323
-0.2182724 -0.18323267 0.48883328 11116185
-0.19344841 -0.18386059 0.48837498 11379100
-0.1847416 -0.18354569 0.48753849 11115159
-0.17890143 -0.18409587 0.48900005 10720914
-0.22373465 -0.1815041 0.48999995 10853531
-0.21424283 -0.18254967 0.49162254 11247771
-0.20477565 -0.18280946 0.49296302 11313564
-0.19532153 -0.1820827 0.49198702 11379101
-0.18492377 -0.1817866 0.49132487 13021088
-0.17485356 -0.18261446 0.49346194 11312018
-0.16516647 -0.18322162 0.4952983 9010554
-0.1548108 -0.18312882 0.49506649 7892589
-0.14533189 -0.18316868 0.49513459 7497832
-0.13509108 -0.18368287 0.4943752 7169124
-0.12473997 -0.18316035 0.49470186 8154991
-0.1153126 -0.18380018 0.49529305 9733506
-0.10566819 -0.18564899 0.49742845 11180946
-0.095014825 -0.1861354 0.49674988 10787991
-0.085183822 -0.18621811 0.49673331 10590614
-0.075018756 -0.18664384 0.49469236 10393749
-0.063516185 -0.1867823 0.49650002 10459285
-0.05447932 -0.18550552 0.49611762 9867921
-0.045896702 -0.18312669 0.49406314 8882057
-0.22012915 -0.17885678 0.49000001 11445152
-0.21389027 -0.17858878 0.49396497 11116443
-0.2047984 -0.17780568 0.49709553 11313564
-0.19504479 -0.1778065 0.49701035 11773083
-0.18503812 -0.17835382 0.49642822 13612446
-0.17636076 -0.178422 0.49748319 12757393
-0.1650939 -0.17933096 0.49800012 11772050
-0.15491521 -0.1793309 0.49800012 10062725
-0.14962231 -0.17933093 0.49800003 10062725
-0.15000325 -0.18036041 0.50200003 10128518
-0.14339757 -0.18098345 0.50100005 9339261
-0.13528156 -0.18111813 0.50092006 9470847
-0.1265624 -0.18107563 0.501091 10391691
-0.11401117 -0.18114881 0.50158328 10918805
-0.10459772 -0.18220256 0.50372553 9670026
-0.094976999 -0.18335034 0.50438696 10393489
-0.084868722 -0.18351489 0.50469875 10525078
-0.075286619 -0.18488716 0.50487268 10525078
-0.065289997 -0.18568189 0.50453115 10459286
-0.054852117 -0.18373135 0.50471282 9211020
-0.048411813 -0.18107897 0.50400001 8554121
-0.20600991 -0.17474155 0.50015789 11050649
-0.19418593 -0.17309189 0.50143671 13086878
-0.18469952 -0.17332855 0.50242746 13152151
-0.17489396 -0.1741688 0.50430447 13743774
-0.16507958 -0.1756338 0.5046733 13546909
-0.15482287 -0.17612712 0.50493985 12561049
-0.14502542 -0.17722836 0.50536841 10983824
-0.13532759 -0.17829672 0.50527275 11115925
-0.12467066 -0.17820799 0.50557137 11050647
-0.11547907 -0.17793728 0.50661385 10787734
-0.10597052 -0.17911132 0.50778574 8619657
-0.050060023 -0.17942868 0.50400001 9013643
-0.048411813 -0.17942868 0.50400001 8225416
-0.19188161 -0.16876875 0.5042001 12824476
-0.18497874 -0.16798843 0.50619733 13087133
-0.17757776 -0.16846547 0.50846148 13678494
-0.1004706 -0.18066585 0.51100004 8816259
-0.09462174 -0.18066585 0.51099998 9933195
-0.085012905 -0.18066585 0.51099998 10591125
-0.074308038 -0.18112352 0.51118749 10591383
-0.064855374 -0.1816854 0.51224709 9999763
-0.056703217 -0.18150555 0.51248091 9013642
-0.17199077 -0.17112768 0.51000005 13875615
-0.16430067 -0.17107289 0.51104009 13613214
-0.15485331 -0.17131089 0.51179969 13744544
-0.14487648 -0.17271391 0.51356655 12956321
-0.134845 -0.17387469 0.513466 10985111
-0.12535216 -0.1734086 0.51392919 10853525
-0.11471105 -0.17343399 0.51452583 10853525
-0.10538767 -0.1753315 0.51417387 9802383
-0.095067412 -0.17674501 0.51549292 9013383
-0.084904678 -0.1765632 0.51498455 10525076
-0.075008199 -0.17681476 0.51560444 10459541
-0.0657859 -0.17785448 0.51760775 9473678
-0.055456139 -0.17874922 0.51688242 8619913
-0.18026574 -0.16602528 0.51100004 12232856
-0.17378475 -0.16537517 0.51420712 12758943
-0.165288 -0.16549373 0.51600552 12560532
-0.15559749 -0.16708067 0.51641172 12955029
-0.1453194 -0.16879798 0.5179022 12365215
-0.13511725 -0.16886859 0.51853222 11050904
-0.12593958 -0.16865812 0.51893556 10985111
-0.17078274 -0.15927778 0.51900005 11182228
-0.16653958 -0.15927778 0.51900005 15128262
-0.12094603 -0.17065209 0.52000004 10919318
-0.11448823 -0.17057344 0.52080005 10853782
-0.10406956 -0.17166367 0.52135563 10656402
-0.095169418 -0.17206405 0.52184206 9473419
-0.085073948 -0.17186354 0.52110034 10393746
-0.075007692 -0.17186442 0.52096546 10065038
-0.065395951 -0.17386387 0.52081823 9276812
-0.059415679 -0.17567162 0.52100003 8619658
-0.16175887 -0.16128735 0.52000004 11641495
-0.15370297 -0.1628574 0.52178019 12824989
-0.14527491 -0.16422118 0.52334374 11182488
-0.13480471 -0.16483873 0.52319443 11050903
-0.12465945 -0.16544361 0.52371413 10985111
-0.11506192 -0.16609302 0.52397847 10919318
-0.10504826 -0.16664921 0.52612793 10787730
-0.094975546 -0.16673762 0.52642101 10327696
-0.084979005 -0.16661823 0.52606261 9342347
-0.075451061 -0.1674317 0.52362007 9342347
-0.068196304 -0.16906621 0.52300006 9474191
-0.16175887 -0.15958467 0.52000004 12693672
-0.15539367 -0.15964091 0.523 11510939
-0.14784384 -0.15944651 0.528 10854293
-0.11178307 -0.16209115 0.53100008 12431526
-0.10714093 -0.16229467 0.53166664 11115411
-0.094228767 -0.16251089 0.53237492 10064782
0.0076681841 -0.18311869 0.60475004 9469820
0.014712526 -0.18259278 0.6034286 8944248
0.021414798 -0.18080761 0.60200006 8948620
0.016480995 -0.17868783 0.60150003 6972004
0.021414796 -0.17883642 0.60200006 8948620
