# .PCD v0.7 - Point Cloud Data file format
VERSION 0.7
FIELDS x y z rgb
SIZE 4 4 4 4
TYPE F F F U
COUNT 1 1 1 1
WIDTH 98
HEIGHT 1
VIEWPOINT 0 0 0 1 0 0 0
POINTS 98
DATA ascii
0 0 0 11514780
-0.091655411 -0.091735139 0.30000004 12876072
-0.086137414 -0.092558362 0.30029404 12744488
0.01522526 -0.096562944 0.30217946 10374146
-0.091833532 -0.087758407 0.29999992 12677406
-0.084915251 -0.085228644 0.30039519 12480027
-0.078725085 -0.084275313 0.29999971 12217113
-0.083119221 -0.079042614 0.30000013 11491845
-0.07941214 -0.079368159 0.29999998 12215564
0.019704005 -0.098734349 0.31500003 10243074
0.020734135 -0.098734364 0.31500003 10308867
0.049476862 0.039602578 0.31600001 1646100
0.052519083 0.038884565 0.31551513 2566428
0.049414232 0.042394944 0.31560001 2106137
0.053191595 0.042500515 0.31547013 5000511
0.028070977 -0.092038319 0.33110169 10243074
0.033536851 -0.091480218 0.3327471 10309128
0.02768152 -0.086596258 0.3330957 10177285
0.034000501 -0.087029196 0.33654562 10309645
0.036733154 -0.083428733 0.34458745 10442521
0.042005051 -0.086275749 0.3463639 10443297
0.035140321 -0.079166479 0.34800002 10442779
0.038546119 -0.080452293 0.35050005 10508829
0.044505615 -0.083575077 0.35477477 10443553
0.050632864 -0.086370878 0.359 10443555
0.03735894 -0.078013964 0.35352081 10508829
0.041213315 -0.078859046 0.35670376 10443550
0.04756774 -0.082148634 0.36248106 10443554
0.052513253 -0.083701923 0.36639205 10443556
0.044359971 -0.077768847 0.36553842 10443552
0.050397892 -0.079800114 0.36800003 10443810
0.1084216 -0.14101368 0.37619999 2954502
0.11461443 -0.14211774 0.37788248 2167559
0.12068322 -0.14230725 0.37800002 1511945
0.10895637 -0.13939781 0.37725002 3217158
0.11103649 -0.13936183 0.37863636 2889222
0.056218714 -0.081589393 0.37363154 10378276
0.06056888 -0.08113452 0.377 10312742
0.047981385 -0.076363988 0.37331146 10443551
0.053566545 -0.077984728 0.37635419 10443554
0.06056888 -0.079900078 0.377 10312742
0.11600786 -0.14118178 0.38012236 2233095
0.12199488 -0.14197145 0.38000008 1775630
0.11585645 -0.13933705 0.38017654 2429960
0.12007905 -0.13932739 0.38000003 2102024
0.0638218 -0.081307828 0.38333327 10246949
0.056716539 -0.076612785 0.38217139 10443554
0.063084677 -0.077969328 0.38561264 10312485
0.026278386 0.018856896 0.38217649 3094313
0.031601593 0.019048041 0.38415784 2369823
0.026284385 0.02413317 0.3843655 2765092
0.033300444 0.024244092 0.3861908 3554351
0.1968728 -0.14954942 0.396375 9545643
-0.054037992 -0.1116373 0.39699996 13070611
-0.034752525 -0.1121669 0.39810726 2960417
-0.054037999 -0.10786255 0.39699987 13070609
-0.035301454 -0.1091116 0.39800003 2829086
0.057817619 -0.07390511 0.39355722 10443553
0.065231681 -0.074579149 0.39461988 10312228
0.07082244 -0.074762903 0.39800003 9721384
0.029253002 0.029477613 0.39100003 2765608
0.032886874 0.028641783 0.39049995 2633251
0.029253002 0.030757897 0.39100003 2831657
0.032289848 0.030597864 0.39100003 2633765
0.20627223 -0.15093195 0.40259463 9611181
0.21218717 -0.15132549 0.4047097 9480108
0.20527263 -0.14718893 0.40260711 9414316
0.2125033 -0.14745884 0.40580371 9743023
0.065900877 -0.071401753 0.40399995 10443039
0.072794989 -0.076223738 0.40500009 9589797
0.075364321 -0.075280234 0.41200003 9063715
0.13667431 -0.072285891 0.46500012 10518367
0.13667428 -0.068479404 0.46500012 10709567
-0.051765915 -0.17355828 0.47465232 9585923
-0.046598271 -0.1741116 0.47700009 10375438
-0.051848095 -0.16808446 0.47450003 8467712
-0.046669096 -0.16890959 0.47775009 9389058
-0.041775808 -0.18038146 0.48439997 10704404
-0.037863348 -0.18060488 0.48500004 10769684
-0.041902129 -0.17559952 0.48433325 10638610
-0.038061615 -0.17723024 0.48499998 10704148
-0.042533696 -0.16993129 0.48400006 10244360
0.10138357 -0.075633012 0.4970001 9715456
0.098922752 -0.070910238 0.50099999 9321472
0.10559018 -0.073423274 0.50194824 11031557
0.11434054 -0.073774077 0.50489169 11099670
0.099070832 -0.068140663 0.50175005 9189888
0.10585754 -0.065816477 0.50517595 10440972
0.11443664 -0.065236494 0.5079546 11626533
0.10740831 -0.059448995 0.50819999 10114585
0.11340271 -0.059542578 0.509 10641192
0.11862901 -0.061329503 0.51000005 10641452
0.11557131 -0.058128782 0.51000017 10575913
0.21569483 -0.011195707 0.62442863 11430700
0.21550758 -0.0046217195 0.62650579 9723438
0.22318782 -0.0040508844 0.62635195 10839336
0.21608934 0.0020365939 0.62668759 8278313
0.22460882 0.0027408565 0.62572348 8803106
