# .PCD v0.7 - Point Cloud Data file format
VERSION 0.7
FIELDS x y z rgb
SIZE 4 4 4 4
TYPE F F F U
COUNT 1 1 1 1
WIDTH 960
HEIGHT 1
VIEWPOINT 0 0 0 1 0 0 0
POINTS 960
DATA ascii
0 0 0 1709842
0.1276236 -0.044119745 0.42866343 986890
0.13492483 -0.044435337 0.42841095 921096
0.14082395 -0.043160681 0.42899993 921097
0.12833075 -0.038448185 0.42866662 2301720
0.13478881 -0.038440578 0.42827126 1381390
0.14082395 -0.038595363 0.42899996 1184268
0.1290323 -0.061056823 0.43900001 658183
0.13474038 -0.060880661 0.43773335 658183
0.14218466 -0.060848206 0.4375 658183
0.1185827 -0.051818259 0.43771431 855560
0.12533124 -0.054119553 0.4353928 723975
0.13479353 -0.054959264 0.43324199 658183
0.14495479 -0.05483925 0.43488511 723976
0.15488276 -0.052342612 0.43684617 790025
0.10887064 -0.041627493 0.43875006 1250320
0.11558248 -0.044323541 0.43582153 987147
0.12312716 -0.04562144 0.43145019 921096
0.13482425 -0.049597204 0.42999998 723975
0.14525162 -0.04533558 0.43114546 855305
0.15524802 -0.044695351 0.4342224 855562
0.16101375 -0.04303332 0.43286666 1710872
0.10887063 -0.03767674 0.43875006 1513233
0.11528326 -0.035559602 0.4367072 2170388
0.12449238 -0.034714226 0.4331097 1972753
0.1349728 -0.033421181 0.43234378 2170390
0.14528179 -0.034756754 0.43310636 1512976
0.15519553 -0.034721795 0.43417934 1118735
0.16137204 -0.035700638 0.43267739 3619128
0.1193417 -0.029073492 0.43900001 1315340
0.12548244 -0.02848414 0.43810517 2170133
0.13504322 -0.027956203 0.43811202 2564890
0.14515918 -0.028207816 0.43722549 2236182
0.15588503 -0.027754338 0.43714464 1644820
0.16145615 -0.026629036 0.43732145 2829355
0.16553257 -0.084024556 0.44842866 6182727
0.12820432 -0.070848621 0.44866669 526595
0.13564803 -0.073358692 0.44808623 526340
0.144987 -0.073738053 0.44802475 592390
0.15445383 -0.07230328 0.44857162 658183
0.16555998 -0.073354229 0.44900012 1316114
0.17124981 -0.070166171 0.44900003 1052941
0.11893162 -0.061936967 0.448625 789768
0.12513132 -0.064311258 0.44543293 723976
0.13487926 -0.065947182 0.44310817 658183
0.14520909 -0.06547226 0.44321823 723976
0.1549201 -0.065032035 0.44588354 724490
0.16509192 -0.065061554 0.44854444 1579285
0.17124981 -0.068695977 0.44900003 1118734
0.10831188 -0.051351447 0.44733334 1447699
0.11510785 -0.054742936 0.44428837 987146
0.1225188 -0.058212042 0.44164863 789512
0.1555569 -0.057429485 0.44194523 789769
0.16431208 -0.057536144 0.44636354 1776406
0.099422589 -0.040217526 0.44300002 7698553
0.10510259 -0.045046598 0.44400567 2171422
0.11160915 -0.047996424 0.4404999 1118734
0.099518433 -0.035337772 0.44229999 7566708
0.10487045 -0.034530479 0.44248408 2631716
0.11298762 -0.031139731 0.44070837 2827807
0.10605408 -0.026570687 0.44629678 3486769
0.11485457 -0.02712963 0.44376141 2893856
0.12525949 -0.024710933 0.44421548 3222563
0.13495326 -0.02289065 0.44392952 3156514
0.1449105 -0.023398118 0.4410004 3156514
0.15460747 -0.023120856 0.44091848 2565149
0.16214934 -0.022247033 0.44069228 4869194
0.13777663 -0.017323285 0.44792977 3748393
0.14484282 -0.015400876 0.44533306 3946029
0.15433885 -0.015733087 0.44350916 4341304
0.16158234 -0.018599592 0.44245452 5592662
0.14591277 -0.0091297077 0.44785717 6052440
0.13777509 -0.11334362 0.45844057 658183
0.14437436 -0.11370358 0.45812401 723976
0.15323786 -0.1122774 0.45866662 921097
0.1283126 -0.10146383 0.45866674 526597
0.13536958 -0.10458327 0.45579007 592390
0.14481632 -0.10469711 0.4535099 658184
0.15490524 -0.10490423 0.45584863 921098
0.1637686 -0.10333893 0.45730394 3159349
0.17314106 -0.10175998 0.45887497 5265241
0.1187745 -0.090515651 0.45900002 723717
0.12611498 -0.094079584 0.4573108 526596
0.13499865 -0.094851784 0.45211136 526597
0.14510474 -0.094648279 0.4503071 592647
0.15491746 -0.094879858 0.4517217 527112
0.16450195 -0.09498103 0.45282397 2631976
0.1725015 -0.097416446 0.45566669 2961969
0.11706749 -0.084179208 0.45814717 789254
0.12487408 -0.085006848 0.45516092 526338
0.1349491 -0.085060656 0.45142657 394753
0.14514209 -0.085057221 0.44999996 460802
0.15505297 -0.085034937 0.45001081 592646
0.163093 -0.085170291 0.45007262 2302750
0.10901767 -0.070601679 0.45900002 1184268
0.11572827 -0.074711069 0.45658025 854790
0.12474511 -0.075279944 0.45224428 526339
0.13420506 -0.077657573 0.45044622 394753
0.14514211 -0.078794919 0.45000014 395011
0.15569839 -0.077448994 0.45000044 526597
0.16276997 -0.076363616 0.45000029 987148
0.10684218 -0.063943684 0.45789221 1974043
0.11458 -0.06520725 0.45338377 1052940
0.12166557 -0.068264097 0.45082751 855304
0.10534671 -0.055635415 0.45369828 2960940
0.11164475 -0.058271743 0.45121422 1118990
0.1023242 -0.049435098 0.45100001 5197905
0.10807206 -0.022000952 0.45122215 3749171
0.11478645 -0.022173123 0.45140758 3880750
0.12387972 -0.021514429 0.45133337 3748650
0.10816977 -0.018586099 0.45341182 6842214
0.11517784 -0.016644789 0.45623687 4604217
0.12557016 -0.015819119 0.45604107 3880750
0.13425994 -0.013959907 0.45331901 3946286
0.1411851 -0.011177109 0.45254552 4340532
0.12874576 -0.0076928874 0.45900008 6579552
0.13489868 -0.0074099321 0.45745465 6645347
0.14144659 -0.0083972085 0.45440003 5986132
0.13873862 -0.15134607 0.46885711 723976
0.14511286 -0.15363365 0.46801969 855308
0.15168524 -0.1517446 0.4677895 987409
0.12979779 -0.14086173 0.46900001 723719
0.13571858 -0.14421307 0.46694675 789512
0.14490491 -0.14508943 0.46486622 789770
0.15468881 -0.14465322 0.46699077 1119252
0.127921 -0.13402914 0.46800005 658183
0.13493246 -0.13492943 0.46461505 723976
0.14501075 -0.13510896 0.46272293 724233
0.15469363 -0.13496941 0.4645685 987922
0.16387968 -0.13348554 0.46825913 4935246
0.1712091 -0.13164763 0.46900001 8159363
0.12591986 -0.1246499 0.46706086 789512
0.13493448 -0.12507144 0.46283555 723719
0.14503317 -0.12499561 0.46113792 789513
0.15500692 -0.12494794 0.463061 856079
0.16526029 -0.12502503 0.46629354 5462106
0.17311597 -0.12336668 0.46721709 7633278
0.11736926 -0.1138163 0.46841344 789512
0.1250764 -0.11496099 0.46523762 657926
0.13375773 -0.11571404 0.46119231 657926
0.14666367 -0.11798755 0.4602142 789769
0.15568037 -0.11631662 0.46082488 921356
0.16505566 -0.11496318 0.46360773 4541004
0.17460503 -0.11496647 0.46533328 7107446
0.18000564 -0.11201237 0.46400005 6909555
0.10799841 -0.10325119 0.46862498 1184270
0.11503184 -0.10477933 0.46600005 789769
0.12451587 -0.10530899 0.46221226 657926
0.13110192 -0.10788663 0.46065003 460804
0.15964988 -0.10916398 0.46000001 1316113
0.16643924 -0.10722353 0.46061528 4936276
0.17439532 -0.10679641 0.46180022 6186344
0.18000564 -0.10973341 0.46400002 6580590
0.098934919 -0.093848079 0.46811119 4737100
0.105181 -0.094888881 0.46681663 1644823
0.11493377 -0.095107228 0.46292242 789512
0.12266362 -0.0973849 0.46076262 789512
0.098592378 -0.084806055 0.46538454 5724509
0.10509183 -0.085041493 0.4641636 1645336
0.11276648 -0.085968412 0.46080655 921096
0.098769255 -0.076223567 0.46362063 5724766
0.10498197 -0.075215526 0.46251482 1710615
0.11109354 -0.076463476 0.46022862 789254
0.099334411 -0.065638728 0.46108344 6579816
0.10291437 -0.066359967 0.4606263 2566440
0.11790501 -0.011636567 0.45999998 5591371
0.12321857 -0.011646284 0.46041667 4473145
0.13219604 -0.01013035 0.46000001 4341560
0.12427166 -0.0088175265 0.46118176 6184023
0.13219604 -0.009377243 0.46000001 4538939
0.14491007 -0.17148417 0.47838479 855309
0.1530095 -0.17128484 0.47882611 1053458
0.12883817 -0.16282432 0.47825003 789512
0.13567519 -0.16443351 0.47690505 855305
0.14489977 -0.16517761 0.47515041 855308
0.15500936 -0.16495565 0.47600865 1185559
0.16162054 -0.1630962 0.47757143 3225143
0.11873042 -0.15133028 0.47880009 921098
0.12584619 -0.15450692 0.47709441 789512
0.13490376 -0.15528457 0.47244594 789769
0.1442246 -0.15843427 0.47087505 789770
0.15548499 -0.15553772 0.47142175 1316632
0.1639123 -0.15451734 0.47575983 5790556
0.17120455 -0.15118451 0.47900003 8487814
0.11597575 -0.14428996 0.47751233 986891
0.12501365 -0.14507024 0.47379622 723719
0.13160127 -0.14711101 0.47034082 789512
0.15906276 -0.147861 0.47050002 1646367
0.16520201 -0.14510629 0.47340006 6185315
0.17424373 -0.14451727 0.47674713 8487558
0.10906853 -0.13249408 0.47900003 1118477
0.11523804 -0.13453412 0.47545379 986891
0.12327011 -0.13552403 0.47148699 723719
0.16658773 -0.13732466 0.47094223 7369074
0.17337941 -0.13709924 0.47294122 8356228
0.098886587 -0.12112297 0.47900003 5526102
0.10597237 -0.12353768 0.47743827 1644822
0.11504646 -0.12515149 0.47335327 986891
0.12124871 -0.12578787 0.4702619 789512
0.098575391 -0.11468466 0.47617501 5789529
0.10496692 -0.11496466 0.47422206 1776408
0.1131773 -0.11601467 0.47101972 921098
0.098764777 -0.10548402 0.47247055 5131858
0.10387728 -0.10556278 0.470992 1842459
0.11009327 -0.10884394 0.47000003 1118477
0.098949872 -0.098840706 0.47000003 4473928
0.10010263 -0.098840706 0.47000003 3487032
-0.25126326 -0.18369557 0.48899999 12102825
-0.24846475 -0.18369557 0.48900005 12103082
-0.23127379 -0.18369557 0.48899999 11905702
-0.22687612 -0.18369557 0.48900005 11970982
0.12882431 -0.18047476 0.48771429 789512
0.13507888 -0.18225935 0.4866668 921099
0.14451951 -0.18168619 0.48385364 789773
0.15503369 -0.18178083 0.48495832 1316374
0.16432415 -0.1819998 0.4872354 6447973
0.17140709 -0.18035261 0.48699999 9079436
0.11899291 -0.17103547 0.48866668 921098
0.12630478 -0.17404139 0.48612624 789512
0.13494515 -0.17503797 0.48258138 921098
0.14504094 -0.1768553 0.48141557 855309
0.15547539 -0.17574516 0.48195636 1251095
0.16499422 -0.17502913 0.48441815 6777195
0.17197017 -0.17524335 0.48605368 8882315
0.10832504 -0.16015042 0.48800004 1315086
0.1161023 -0.16390862 0.48590401 1117964
0.1243985 -0.16532056 0.4824121 789769
0.13221352 -0.16828398 0.48033333 855305
0.15952741 -0.16891983 0.48000002 1777955
0.16616541 -0.16562089 0.48181611 7566711
0.17292881 -0.16486616 0.48445457 8553607
0.098552287 -0.15127183 0.48899999 4934480
0.10611939 -0.15403813 0.48801717 1578772
0.1146794 -0.1553759 0.483087 1118220
0.12238394 -0.15810399 0.48027578 855305
0.16808519 -0.15717265 0.48017386 8553349
0.17351599 -0.15482746 0.48096049 8553607
0.098581754 -0.14464134 0.48745251 5592153
0.10480711 -0.14547563 0.4866927 1907737
0.11245037 -0.14824995 0.48186663 1052684
0.17700626 -0.14945127 0.48057142 8422278
0.09839841 -0.13490878 0.48511109 6316389
0.10403358 -0.13469197 0.48297453 2039581
0.099045023 -0.12598212 0.48085713 5065807
0.10341842 -0.12759647 0.48052633 2236704
-0.25253057 -0.1813641 0.49394995 12168873
-0.24490763 -0.18239939 0.49355254 12037288
-0.23544393 -0.18219982 0.49326468 11905958
-0.22421524 -0.18208869 0.49410281 11839909
-0.21559832 -0.18424149 0.49528581 9737368
-0.20576955 -0.185854 0.49774653 10919067
-0.19445895 -0.1860638 0.49813327 11708581
-0.18503559 -0.18613498 0.49786583 11643044
-0.17583013 -0.18697527 0.49773332 11380386
-0.16410939 -0.18621615 0.49695233 9737108
-0.15627837 -0.18484418 0.49194112 9277588
0.11816779 -0.18240532 0.49800003 1052684
0.12443826 -0.18387058 0.4940902 855305
0.13072582 -0.18423973 0.49014288 855305
0.16825172 -0.18421263 0.49079996 9144972
0.17126366 -0.1836701 0.48999989 9145229
-0.25413799 -0.17696327 0.49771446 12234664
-0.24496609 -0.17743026 0.49824989 12103080
-0.23459926 -0.17788228 0.4977794 11971494
-0.22709589 -0.17822294 0.49800003 11971494
0.098438382 -0.17259176 0.49855 5461080
0.10551322 -0.17270835 0.4976573 1842201
0.11523518 -0.17492558 0.49513695 1184013
0.12255474 -0.17733721 0.49139991 855305
0.098255888 -0.16533028 0.49540433 5592668
0.10478489 -0.16501792 0.49372235 1842201
0.11246427 -0.1673332 0.49193737 1249806
0.17899489 -0.16449524 0.49142861 8553350
0.180602 -0.16449523 0.49142864 8553350
0.097901419 -0.15656793 0.49074998 5593181
0.1024934 -0.15723255 0.49064273 2105375
0.099180527 -0.19068459 0.50650001 4473418
0.10408354 -0.19077377 0.50618756 2171168
0.11168578 -0.19053283 0.505 1578258
-0.22053376 -0.18086973 0.5 11904931
-0.21443915 -0.18160295 0.50148487 9934746
-0.20447958 -0.18247904 0.50250876 10656667
-0.19534554 -0.18257628 0.50265527 11643300
-0.18479085 -0.18248187 0.50265396 11379873
-0.17494741 -0.18357401 0.50456941 10197144
-0.1666269 -0.18385883 0.50281584 9474195
0.098989278 -0.18443602 0.50388891 4868433
0.10514658 -0.18490778 0.503263 1907995
0.11428149 -0.18556406 0.50126398 1250063
-0.25377479 -0.17269556 0.50088567 12234152
-0.24489388 -0.17375003 0.50078839 12103080
-0.23617066 -0.17409411 0.5010134 12037286
-0.22442229 -0.1755774 0.5024997 11971493
-0.21542712 -0.17535992 0.5059129 11576737
-0.20607239 -0.17782749 0.50710112 10919580
-0.19454062 -0.17739987 0.50753111 11445407
-0.18570602 -0.17773136 0.50742704 10919323
-0.17944379 -0.1790919 0.50820005 10064790
0.098720118 -0.17728749 0.50066668 5197654
0.10479958 -0.17769691 0.50057143 1973788
0.11139754 -0.17882323 0.5 1578514
-0.25584462 -0.16868077 0.50081819 12103336
-0.24585859 -0.16945001 0.50052387 12037031
-0.22069806 -0.16895707 0.50600004 12233635
-0.21760722 -0.16908304 0.50700003 11707291
-0.21152189 -0.17142287 0.51165009 11905189
-0.20493761 -0.17314345 0.51269776 10788508
-0.19562125 -0.17291829 0.5115 10854043
-0.18489066 -0.17381378 0.51013851 10328217
-0.17741123 -0.1780162 0.51000017 9736853
-0.21285269 -0.16987522 0.51000005 11904159
-0.20329008 -0.16948001 0.51642859 10131098
0.36669868 0.2666564 0.70800012 2498328
0.36854884 0.27919549 0.70600003 2235414
0.37319145 0.27659965 0.70823807 1447183
0.36705744 0.28385654 0.70690709 3812903
0.37178367 0.28383479 0.7060436 1710355
0.36761346 0.26495275 0.71712494 4799026
0.37386408 0.26534727 0.71351784 1643792
0.36832872 0.27584159 0.71145433 3220509
0.37233177 0.27387729 0.71079999 1775378
0.37801433 0.23797894 0.72299993 1052939
0.38156095 0.23797894 0.72300005 855560
0.37926236 0.24828823 0.72200006 1184268
0.38103318 0.24828823 0.72200006 987146
0.37537536 0.25632295 0.72133332 1709841
0.38103318 0.25065231 0.72200006 1118475
0.37346935 0.26229745 0.72047079 1841682
0.38062856 0.26644185 0.7280001 1512464
0.30959532 -0.14574306 0.73600006 7563098
0.31449419 -0.14504986 0.73699999 7562841
0.3094345 -0.13385497 0.73466676 3683370
0.31461459 -0.13505459 0.73582691 5393215
0.32167029 -0.13481787 0.73885721 5787715
0.30917466 -0.12809667 0.73499995 921616
0.31499782 -0.12580429 0.73531717 855820
0.32129714 -0.12499479 0.73800015 790539
0.31711695 -0.11671533 0.73613346 789773
0.32151482 -0.11480076 0.73850012 855309
0.31636199 -0.10556978 0.73614293 1052687
0.32173249 -0.10641097 0.73900008 986895
0.38739839 0.13787523 0.73520005 527367
0.37792119 0.14705965 0.73900014 856332
0.38511121 0.14466549 0.7336002 592903
0.37792128 0.15129426 0.73899996 790539
0.38667327 0.15745056 0.73799998 789512
0.39008051 0.15713075 0.73800004 723976
0.38494876 0.16462727 0.7383635 789513
0.39008048 0.16498433 0.73799998 658439
0.38457841 0.17070569 0.73885721 724232
0.39008051 0.17102557 0.73800004 593160
0.37622067 0.25258002 0.73100013 2301463
0.38040411 0.25257999 0.73100001 1315854
0.37733352 0.26302326 0.73592001 3483424
0.3849594 0.26294145 0.73640001 1381391
0.39038253 0.2642636 0.73857135 1118477
0.32679734 -0.13519861 0.74171418 6050373
0.33464083 -0.13506941 0.7451334 6773580
0.34200734 -0.13176288 0.74900001 6707789
0.32672131 -0.12484982 0.7407186 856075
0.33457047 -0.12508333 0.74381131 1118733
0.34240288 -0.12444796 0.74765211 1710354
0.32713017 -0.11507864 0.74027479 855819
0.33493087 -0.1149461 0.74272555 921867
0.34445676 -0.11474064 0.74711776 1447177
0.35119268 -0.11214279 0.74900001 5196038
0.31974784 -0.10170886 0.74000001 1118481
0.32641751 -0.10463841 0.74037498 987148
0.33454183 -0.10454256 0.74267918 1184521
0.34453064 -0.105047 0.74650013 5722375
0.35128132 -0.10460221 0.74815798 8880132
0.31974784 -0.096257024 0.74000007 1118481
0.32476494 -0.094718799 0.74103308 921357
0.33469972 -0.094902091 0.74364287 1053452
0.3443982 -0.095231764 0.74621439 4210184
0.35294083 -0.09515585 0.74862784 6314766
0.32602063 -0.085858345 0.74380398 987407
0.33530515 -0.084787518 0.74639046 1118993
0.34494147 -0.085498303 0.74793237 921612
0.3521449 -0.086402781 0.74867982 987661
0.32914788 -0.078420758 0.74900001 1381908
0.33527145 -0.078420743 0.74899989 1250579
0.37997344 -0.06370569 0.74900001 527113
0.38565579 -0.063573189 0.74870616 658699
0.39324975 -0.063836642 0.74811101 724490
0.37997344 -0.055121899 0.74900001 592650
0.3854562 -0.05503149 0.74776423 592907
0.39252859 -0.054908924 0.74609387 527369
0.37997344 -0.048377495 0.74900001 461321
0.38605258 -0.04552196 0.74758083 396298
0.39247879 -0.045129139 0.74600023 461830
0.38789496 -0.036359612 0.74828559 396300
0.39269727 -0.035140343 0.74691421 330507
0.38854635 -0.026304895 0.74899983 593679
0.39245704 -0.025208183 0.74690706 659473
0.39341497 -0.014629498 0.74778116 856080
0.39424083 -0.0064146472 0.74785715 1053457
0.39536616 0.0049594212 0.74800009 1513747
0.39589471 0.011095894 0.74900001 2301974
0.37782764 0.14241256 0.74000001 856332
0.38428989 0.14475478 0.74091893 724233
0.38677287 0.15412219 0.74390614 723977
0.39190015 0.15306221 0.74316669 658439
0.37792981 0.16668865 0.74019998 987149
0.38180113 0.16418791 0.74125004 855307
0.37833831 0.17111422 0.74100012 987148
0.3807615 0.17111424 0.74100006 855562
0.39256227 0.17691429 0.74500024 658183
0.38976821 0.18227831 0.74200004 723976
0.39158809 0.18227832 0.74200004 723976
0.38881987 0.22845067 0.74600005 789768
0.3918694 0.22845066 0.74600005 789769
0.38881984 0.23150402 0.74600005 986889
0.3918694 0.23150402 0.74600005 855561
0.37843266 0.25932431 0.74000001 3680804
0.38642958 0.25561386 0.7425788 1381647
0.39135471 0.25443754 0.74300003 1052939
0.38621387 0.26028135 0.74100012 1512720
0.34568611 -0.13583814 0.75233334 6970961
0.35447666 -0.13440722 0.75680488 6445388
0.36022529 -0.13352205 0.75900006 6116681
0.34685037 -0.12561907 0.75068003 2499354
0.35467765 -0.12504408 0.75393617 4143399
0.36396697 -0.12329443 0.75800008 5657393
0.34982207 -0.11597618 0.75000006 1709835
0.35538381 -0.11530269 0.75179553 5525255
0.3649947 -0.1150529 0.75602007 7105040
0.37330809 -0.11420213 0.75860006 3749910
0.38008228 -0.11115476 0.75900006 1972487
0.3563112 -0.1054323 0.75054044 8748806
0.36512175 -0.10465688 0.7533794 5393424
0.37532189 -0.10527409 0.75690377 2499334
0.38435149 -0.10298024 0.75847822 7761929
0.35839465 -0.094312675 0.75008696 2696717
0.36510083 -0.094732948 0.751333 1907461
0.3750985 -0.094872676 0.7545386 7761668
0.38463283 -0.095268726 0.75677198 8222475
0.39302126 -0.09414883 0.75793546 3617293
0.40065178 -0.091152459 0.75800002 3748096
0.34552985 -0.080367297 0.75000006 724748
0.3567315 -0.083781421 0.75000006 922124
0.36549953 -0.084658794 0.75099969 1842442
0.3749288 -0.08488252 0.75222635 7761929
0.38491023 -0.085138492 0.75417203 3420427
0.3950586 -0.085333988 0.75589281 4669958
0.40033466 -0.087361269 0.75740004 7828238
0.32744801 -0.076048143 0.75100011 1119252
0.33499131 -0.073855557 0.75250006 922131
0.3451595 -0.075056076 0.75220299 790799
0.35493949 -0.074865073 0.75165665 922127
0.36524719 -0.074852563 0.75117105 527625
0.37525094 -0.074793868 0.75114989 790279
0.38495165 -0.074999467 0.7515468 2697991
0.39407557 -0.075235471 0.75199997 8222469
0.33593994 -0.067021951 0.75673008 922646
0.34463972 -0.066265956 0.75728607 725265
0.35493913 -0.06571769 0.75664729 790544
0.36473107 -0.065044984 0.75396466 790286
0.37489995 -0.064943664 0.75068104 461833
0.38477299 -0.068702318 0.75000006 856072
0.3933574 -0.06870231 0.75000006 4275975
0.35774314 -0.058964413 0.75900006 921874
0.36691728 -0.056788512 0.75595665 725008
0.3747012 -0.054813311 0.7524454 527628
0.36891273 -0.048402078 0.75900006 659470
0.37560633 -0.045152579 0.75495321 527629
0.38141617 -0.043400768 0.75080955 396300
0.37783873 -0.035349488 0.75672221 462093
0.38329765 -0.034348838 0.75234371 462093
0.37875247 -0.028482465 0.75800008 527630
0.38423055 -0.024443422 0.75434226 593422
0.39090472 -0.020814501 0.75000006 790288
0.38686138 -0.015692417 0.75560015 856080
0.39123464 -0.013757884 0.75248003 921872
0.38852599 -0.0054285536 0.7571429 1053458
0.39231989 -0.004491617 0.75334471 1119250
0.38949689 0.00068080623 0.75800002 1447699
0.39311767 0.0048782998 0.75499994 1448212
0.39486021 0.015017891 0.75431478 4735511
0.39656833 0.024142647 0.75602281 5787417
0.39892235 0.031716015 0.75825 1908242
0.40033466 0.036641479 0.75740004 2894876
0.40065178 0.040392488 0.75800002 723968
0.37884119 0.11811 0.75900006 6708834
0.38132334 0.11811001 0.759 2235681
0.37876177 0.12719366 0.75759995 4471873
0.38247681 0.12791727 0.75775003 1513495
0.37846184 0.13143164 0.75700003 4669765
0.38309848 0.13153581 0.75759995 1316373
0.38443711 0.15741637 0.75321037 1052943
0.38767126 0.16250736 0.75663644 921102
0.35883582 -0.13743077 0.76000005 5984839
0.36576656 -0.13517061 0.76278567 5195582
0.3749682 -0.13519697 0.76587021 4603960
0.38391495 -0.1334473 0.76768959 5130047
0.36668649 -0.12764417 0.76100004 5788227
0.37501636 -0.12491068 0.76275533 5722434
0.38461053 -0.12498421 0.76582682 5985095
0.39278623 -0.12448002 0.76837498 6182217
0.37739399 -0.11637972 0.76066679 3419936
0.3850846 -0.11500295 0.76268631 4735777
0.39477023 -0.11461818 0.76587236 6117417
0.40319756 -0.11270141 0.76800007 4208676
0.38577405 -0.10697683 0.76070374 6972940
0.3948442 -0.10489582 0.76251024 6775315
0.40257394 -0.10517579 0.7651875 1841423
0.39711979 -0.09641286 0.76033348 2104329
0.40134713 -0.096275315 0.76120007 2103815
0.3296324 -0.064641282 0.76000005 1580317
0.33424148 -0.062788069 0.76157594 1053975
0.34510976 -0.061118878 0.7626251 790801
0.35308382 -0.060988639 0.7610001 725266
0.33598587 -0.057809088 0.7665385 1251353
0.34510896 -0.057558045 0.76582867 987667
0.35546798 -0.055732254 0.76494449 1053460
0.36393714 -0.053641316 0.76235282 1053460
0.36673942 -0.046234842 0.7651 921872
0.37116891 -0.043167919 0.76189482 725006
0.36938542 -0.037995771 0.76720011 1053714
0.37348568 -0.034676313 0.76382345 790801
0.3762731 -0.024861583 0.76472735 527886
0.38102269 -0.023002507 0.76150006 725008
0.37782687 -0.017409893 0.76717657 659472
0.38276011 -0.014301511 0.76414287 790800
0.38561979 -0.0052859061 0.76440907 1119251
0.39030635 -0.0011869095 0.76200002 1185044
0.38740423 0.004979128 0.7650212 1580055
0.39099434 0.0065075015 0.76233339 1514005
0.38780794 0.014934558 0.76705247 4209949
0.3915174 0.015220283 0.76240474 3880468
0.38881516 0.02185929 0.76714283 4668939
0.39311889 0.025693251 0.76370162 6840608
0.39591557 0.034963593 0.76444757 2369047
0.40067697 0.036786608 0.7604 2960926
0.3980076 0.043999117 0.76622504 1711119
0.40167001 0.045922659 0.76351845 658440
0.3990306 0.054127667 0.76800007 855562
0.40247834 0.054002292 0.76620018 789769
0.39798895 0.078072764 0.76240003 789769
0.40108755 0.077827007 0.76000005 789769
0.39798898 0.080569163 0.76240003 789769
0.40108758 0.080315538 0.76000005 789769
0.37917745 0.096149944 0.76619995 9210757
0.38443819 0.097048365 0.76713896 4736326
0.39610049 0.09813533 0.76800007 855819
0.40415469 0.09863542 0.76700008 592649
0.3790718 0.10114688 0.76700002 9211014
0.38681367 0.10275693 0.76709104 2434596
0.39563838 0.10262807 0.76774991 790282
0.40359756 0.10551556 0.76758623 527367
0.377848 0.11570691 0.76128572 9078148
0.3996585 0.11008029 0.76800001 593160
0.40342584 0.11008029 0.76800001 527367
0.37837306 0.12431546 0.76275009 9011839
0.38482571 0.12361081 0.76190925 2631206
0.39393756 0.12310453 0.76300031 790025
0.3976447 -0.12496329 0.77046168 6576461
0.40492654 -0.12534334 0.77254897 6773841
0.39944023 -0.11843856 0.77000004 5854020
0.40482715 -0.11696532 0.77066684 5656386
0.3376514 -0.052680217 0.77304345 1711386
0.3448565 -0.052457858 0.77205259 1842458
0.35301968 -0.052074052 0.77180964 1447702
0.36103922 -0.050994508 0.77000004 1579802
0.33583185 -0.045983747 0.77525932 2961459
0.34508243 -0.046493717 0.77740538 1710871
0.35552126 -0.046251606 0.77514052 1777435
0.36381894 -0.043480862 0.77364713 922385
0.36729652 -0.035925265 0.77567995 856850
0.37088951 -0.033555582 0.77190006 659471
0.36881703 -0.027913693 0.77666688 725009
0.37184674 -0.024800936 0.77284622 527886
0.37456256 -0.015093191 0.77457517 527629
0.38111946 -0.010681816 0.77200001 987666
0.37731853 -0.0061832722 0.77656108 922130
0.38205096 -0.0039222343 0.77310836 1185044
0.3795591 0.0045237364 0.7782858 1645593
0.38344434 0.0049906489 0.7743389 1645592
0.38473526 0.015281669 0.77462512 3946265
0.38620126 0.025545001 0.77424985 6972189
0.39091301 0.026409559 0.77087498 5919766
0.38679489 0.034948993 0.77638185 4407585
0.39223465 0.036534727 0.7718184 2763033
0.37917182 0.045886002 0.77654546 9210502
0.38553613 0.044417072 0.77706373 5197126
0.39384425 0.045799997 0.77321029 1974033
0.37824532 0.051948979 0.77300006 9407114
0.38555473 0.054678746 0.7756865 3617589
0.39440575 0.053936798 0.77342868 1052941
0.40497041 0.059214316 0.77700001 790026
0.37978804 0.066961847 0.77100003 9341832
0.38293388 0.06421221 0.77169442 7367534
0.40653512 0.063359015 0.77758527 724233
0.4109588 0.066254683 0.77749997 723976
0.37978804 0.070117533 0.77100003 9341830
0.38470235 0.076276235 0.773 7038566
0.39537507 0.077154182 0.77436858 987405
0.4046731 0.075982161 0.77838475 789769
0.41111478 0.074033521 0.7790001 723976
0.38530201 0.084179685 0.77372497 7433582
0.39459777 0.085700184 0.77750802 1512980
0.40474451 0.086271495 0.77650821 789769
0.38641652 0.092407607 0.77799994 9012611
0.39544129 0.094237261 0.77899975 1381907
0.40516555 0.094450064 0.77824545 789769
0.41090593 0.094882838 0.77740002 592904
0.38631371 0.1067643 0.77668989 7828082
0.39637339 0.10570084 0.77773345 1119249
0.40411818 0.10485012 0.77792591 658696
0.38677979 0.11333696 0.77400005 5130828
0.39512864 0.1145644 0.77389026 987406
0.40278336 0.11480925 0.77138311 658440
0.38936785 0.12801586 0.77000004 1119504
0.39258334 0.12419402 0.77147847 987662
0.40533701 0.12404017 0.7746501 723976
0.39314502 0.13053714 0.77000004 856332
0.39837712 0.21815047 0.77900004 922124
0.4015615 0.21815045 0.77900004 724746
0.39798906 0.22511962 0.77699989 1052940
0.40458795 0.225454 0.77743131 724233
0.41093063 0.22473235 0.77825004 658440
0.39725673 0.23332298 0.7743333 1184525
0.40463865 0.23323371 0.77545947 789769
0.41016594 0.23382629 0.77600002 593160
0.33894464 -0.04144071 0.78000003 8421507
0.34544569 -0.04153179 0.78171432 2697258
0.35438681 -0.041531786 0.78171432 921872
0.34821916 -0.037995428 0.78800005 5460310
0.35627472 -0.03695346 0.78610533 1974050
0.36387283 -0.033764597 0.78417027 987667
0.32741454 -0.022457011 0.78600007 8882055
0.33317965 -0.022542726 0.78900003 8947848
0.36682278 -0.025136644 0.78491318 2631980
0.37038177 -0.023573695 0.78039998 791058
0.32783204 -0.015738348 0.78748274 8750470
0.33188954 -0.01608401 0.78900003 8816264
0.36846438 -0.015644081 0.78508317 987668
0.37140474 -0.01372547 0.78220004 593165
0.3687042 -0.0054417825 0.78722739 922644
0.37308782 -0.0044034612 0.78351736 856593
0.36865783 0.0052297497 0.78899992 5921890
0.37479711 0.0050831083 0.78496397 1382682
0.38076848 0.0085563632 0.78114283 1908506
0.37607896 0.015033818 0.78670746 2106143
0.38170278 0.015414819 0.78137523 3684125
0.37610218 0.024681682 0.78731441 3553586
0.38188595 0.025019735 0.78175014 6578719
0.3765462 0.033776235 0.78609419 4605513
0.38185561 0.03461571 0.78168762 4407852
0.37865749 0.043006621 0.78300005 8947587
0.38117114 0.042006437 0.78225005 7434093
0.3954336 0.059595373 0.78200006 1316113
0.40003839 0.059519157 0.78100002 987148
0.39574116 0.065408148 0.78260761 1381908
0.40370077 0.066742122 0.78121948 790026
0.38811463 0.073225141 0.78400004 9210245
0.39397627 0.07382486 0.78120011 2105119
0.40512776 0.073962949 0.78114271 724233
0.41639221 0.20932515 0.78900003 658183
0.3988885 0.21523798 0.78000003 1053197
0.40552735 0.21598683 0.78096569 658953
0.41303465 0.21528071 0.78468752 658183
0.40680271 0.22112615 0.78050005 723976
0.41173899 0.22123107 0.78200006 658183
0.41173363 0.24552129 0.78000009 789767
0.34693557 -0.033147588 0.79461765 8553092
0.35475695 -0.032772865 0.79147393 7434099
0.36202046 -0.030331576 0.79000002 2695723
0.33814296 -0.024441332 0.79388225 8947593
0.34500796 -0.024681602 0.79544657 6908010
0.35501981 -0.024898585 0.79517657 8553091
0.36262864 -0.023834571 0.79214287 8158077
0.33540529 -0.014833515 0.79120016 7764346
0.34475338 -0.014902783 0.79485708 6382438
0.35493511 -0.0149204 0.79583943 4671562
0.36385879 -0.015116338 0.79225415 6382435
0.328567 -0.0051200301 0.79187506 8223873
0.33469692 -0.0051256171 0.79258913 3158582
0.34441218 -0.0051366505 0.79407108 5198161
0.35463181 -0.005144788 0.79515582 4277059
0.36396673 -0.0051285992 0.79284352 1514267
0.32903379 0.00071224192 0.79300004 8618632
0.33584124 0.0044123749 0.79299974 5329235
0.34458238 0.0054329159 0.79366612 5066060
0.35510555 0.0052555832 0.79458416 5263695
0.3643707 0.005089818 0.79288113 6316383
0.3690533 0.014169248 0.79039997 9144713
0.37093401 0.015657747 0.79072726 7433843
0.36894566 0.020783216 0.79100001 9144453
0.37088573 0.020783216 0.79100001 9407370
0.37541261 0.036970928 0.79099995 9013640
0 0 0 1709842
0.10887064 -0.041627493 0.43875006 1250320
0.11558248 -0.044323541 0.43582153 987147
0.10887063 -0.03767674 0.43875006 1513233
0.11528326 -0.035559602 0.4367072 2170388
0.1193417 -0.029073492 0.43900001 1315340
0.11893162 -0.061936967 0.448625 789768
0.10831188 -0.051351447 0.44733334 1447699
0.11510785 -0.054742936 0.44428837 987146
0.099422589 -0.040217526 0.44300002 7698553
0.10510259 -0.045046598 0.44400567 2171422
0.11160915 -0.047996424 0.4404999 1118734
0.099518433 -0.035337772 0.44229999 7566708
0.10487045 -0.034530479 0.44248408 2631716
0.11298762 -0.031139731 0.44070837 2827807
0.10605408 -0.026570687 0.44629678 3486769
0.11485457 -0.02712963 0.44376141 2893856
0.1187745 -0.090515651 0.45900002 723717
0.12611498 -0.094079584 0.4573108 526596
0.11706749 -0.084179208 0.45814717 789254
0.12487408 -0.085006848 0.45516092 526338
0.10901767 -0.070601679 0.45900002 1184268
0.11572827 -0.074711069 0.45658025 854790
0.12474511 -0.075279944 0.45224428 526339
0.10684218 -0.063943684 0.45789221 1974043
0.11458 -0.06520725 0.45338377 1052940
0.12166557 -0.068264097 0.45082751 855304
0.10534671 -0.055635415 0.45369828 2960940
0.11164475 -0.058271743 0.45121422 1118990
0.1023242 -0.049435098 0.45100001 5197905
0.10807206 -0.022000952 0.45122215 3749171
0.11478645 -0.022173123 0.45140758 3880750
0.12387972 -0.021514429 0.45133337 3748650
0.10816977 -0.018586099 0.45341182 6842214
0.11517784 -0.016644789 0.45623687 4604217
0.12557016 -0.015819119 0.45604107 3880750
0.12874576 -0.0076928874 0.45900008 6579552
0.13489868 -0.0074099321 0.45745465 6645347
0.12979779 -0.14086173 0.46900001 723719
0.127921 -0.13402914 0.46800005 658183
0.12591986 -0.1246499 0.46706086 789512
0.11736926 -0.1138163 0.46841344 789512
0.1250764 -0.11496099 0.46523762 657926
0.18000564 -0.11201237 0.46400005 6909555
0.10799841 -0.10325119 0.46862498 1184270
0.11503184 -0.10477933 0.46600005 789769
0.12451587 -0.10530899 0.46221226 657926
0.098934919 -0.093848079 0.46811119 4737100
0.105181 -0.094888881 0.46681663 1644823
0.11493377 -0.095107228 0.46292242 789512
0.12266362 -0.0973849 0.46076262 789512
0.098592378 -0.084806055 0.46538454 5724509
0.10509183 -0.085041493 0.4641636 1645336
0.11276648 -0.085968412 0.46080655 921096
0.098769255 -0.076223567 0.46362063 5724766
0.10498197 -0.075215526 0.46251482 1710615
0.11109354 -0.076463476 0.46022862 789254
0.099334411 -0.065638728 0.46108344 6579816
0.10291437 -0.066359967 0.4606263 2566440
0.11790501 -0.011636567 0.45999998 5591371
0.12321857 -0.011646284 0.46041667 4473145
0.13219604 -0.01013035 0.46000001 4341560
0.12427166 -0.0088175265 0.46118176 6184023
0.13219604 -0.009377243 0.46000001 4538939
0.12883817 -0.16282432 0.47825003 789512
0.11873042 -0.15133028 0.47880009 921098
0.12584619 -0.15450692 0.47709441 789512
0.11597575 -0.14428996 0.47751233 986891
0.12501365 -0.14507024 0.47379622 723719
0.13160127 -0.14711101 0.47034082 789512
0.10906853 -0.13249408 0.47900003 1118477
0.11523804 -0.13453412 0.47545379 986891
0.12327011 -0.13552403 0.47148699 723719
0.098886587 -0.12112297 0.47900003 5526102
0.10597237 -0.12353768 0.47743827 1644822
0.11504646 -0.12515149 0.47335327 986891
0.12124871 -0.12578787 0.4702619 789512
0.098575391 -0.11468466 0.47617501 5789529
0.10496692 -0.11496466 0.47422206 1776408
0.1131773 -0.11601467 0.47101972 921098
0.098764777 -0.10548402 0.47247055 5131858
0.10387728 -0.10556278 0.470992 1842459
0.11009327 -0.10884394 0.47000003 1118477
0.098949872 -0.098840706 0.47000003 4473928
0.10010263 -0.098840706 0.47000003 3487032
-0.25126326 -0.18369557 0.48899999 12102825
-0.24846475 -0.18369557 0.48900005 12103082
-0.23127379 -0.18369557 0.48899999 11905702
-0.22687612 -0.18369557 0.48900005 11970982
0.12882431 -0.18047476 0.48771429 789512
0.13507888 -0.18225935 0.4866668 921099
0.11899291 -0.17103547 0.48866668 921098
0.12630478 -0.17404139 0.48612624 789512
0.13494515 -0.17503797 0.48258138 921098
0.10832504 -0.16015042 0.48800004 1315086
0.1161023 -0.16390862 0.48590401 1117964
0.1243985 -0.16532056 0.4824121 789769
0.13221352 -0.16828398 0.48033333 855305
0.098552287 -0.15127183 0.48899999 4934480
0.10611939 -0.15403813 0.48801717 1578772
0.1146794 -0.1553759 0.483087 1118220
0.12238394 -0.15810399 0.48027578 855305
0.098581754 -0.14464134 0.48745251 5592153
0.10480711 -0.14547563 0.4866927 1907737
0.11245037 -0.14824995 0.48186663 1052684
0.09839841 -0.13490878 0.48511109 6316389
0.10403358 -0.13469197 0.48297453 2039581
0.099045023 -0.12598212 0.48085713 5065807
0.10341842 -0.12759647 0.48052633 2236704
-0.25253057 -0.1813641 0.49394995 12168873
-0.24490763 -0.18239939 0.49355254 12037288
-0.23544393 -0.18219982 0.49326468 11905958
-0.22421524 -0.18208869 0.49410281 11839909
-0.21559832 -0.18424149 0.49528581 9737368
-0.20576955 -0.185854 0.49774653 10919067
-0.19445895 -0.1860638 0.49813327 11708581
-0.18503559 -0.18613498 0.49786583 11643044
-0.17583013 -0.18697527 0.49773332 11380386
-0.16410939 -0.18621615 0.49695233 9737108
-0.15627837 -0.18484418 0.49194112 9277588
0.11816779 -0.18240532 0.49800003 1052684
0.12443826 -0.18387058 0.4940902 855305
0.13072582 -0.18423973 0.49014288 855305
-0.25413799 -0.17696327 0.49771446 12234664
-0.24496609 -0.17743026 0.49824989 12103080
-0.23459926 -0.17788228 0.4977794 11971494
-0.22709589 -0.17822294 0.49800003 11971494
0.098438382 -0.17259176 0.49855 5461080
0.10551322 -0.17270835 0.4976573 1842201
0.11523518 -0.17492558 0.49513695 1184013
0.12255474 -0.17733721 0.49139991 855305
0.098255888 -0.16533028 0.49540433 5592668
0.10478489 -0.16501792 0.49372235 1842201
0.11246427 -0.1673332 0.49193737 1249806
0.097901419 -0.15656793 0.49074998 5593181
0.1024934 -0.15723255 0.49064273 2105375
0.099180527 -0.19068459 0.50650001 4473418
0.10408354 -0.19077377 0.50618756 2171168
0.11168578 -0.19053283 0.505 1578258
-0.22053376 -0.18086973 0.5 11904931
-0.21443915 -0.18160295 0.50148487 9934746
-0.20447958 -0.18247904 0.50250876 10656667
-0.19534554 -0.18257628 0.50265527 11643300
-0.18479085 -0.18248187 0.50265396 11379873
-0.17494741 -0.18357401 0.50456941 10197144
-0.1666269 -0.18385883 0.50281584 9474195
0.098989278 -0.18443602 0.50388891 4868433
0.10514658 -0.18490778 0.503263 1907995
0.11428149 -0.18556406 0.50126398 1250063
-0.25377479 -0.17269556 0.50088567 12234152
-0.24489388 -0.17375003 0.50078839 12103080
-0.23617066 -0.17409411 0.5010134 12037286
-0.22442229 -0.1755774 0.5024997 11971493
-0.21542712 -0.17535992 0.5059129 11576737
-0.20607239 -0.17782749 0.50710112 10919580
-0.19454062 -0.17739987 0.50753111 11445407
-0.18570602 -0.17773136 0.50742704 10919323
-0.17944379 -0.1790919 0.50820005 10064790
0.098720118 -0.17728749 0.50066668 5197654
0.10479958 -0.17769691 0.50057143 1973788
0.11139754 -0.17882323 0.5 1578514
-0.25584462 -0.16868077 0.50081819 12103336
-0.24585859 -0.16945001 0.50052387 12037031
-0.22069806 -0.16895707 0.50600004 12233635
-0.21760722 -0.16908304 0.50700003 11707291
-0.21152189 -0.17142287 0.51165009 11905189
-0.20493761 -0.17314345 0.51269776 10788508
-0.19562125 -0.17291829 0.5115 10854043
-0.18489066 -0.17381378 0.51013851 10328217
-0.17741123 -0.1780162 0.51000017 9736853
-0.21285269 -0.16987522 0.51000005 11904159
-0.20329008 -0.16948001 0.51642859 10131098
0.30959532 -0.14574306 0.73600006 7563098
0.31449419 -0.14504986 0.73699999 7562841
0.3094345 -0.13385497 0.73466676 3683370
0.31461459 -0.13505459 0.73582691 5393215
0.32167029 -0.13481787 0.73885721 5787715
0.30917466 -0.12809667 0.73499995 921616
0.31499782 -0.12580429 0.73531717 855820
0.32129714 -0.12499479 0.73800015 790539
0.31711695 -0.11671533 0.73613346 789773
0.32151482 -0.11480076 0.73850012 855309
0.31636199 -0.10556978 0.73614293 1052687
0.32173249 -0.10641097 0.73900008 986895
0.32679734 -0.13519861 0.74171418 6050373
0.32672131 -0.12484982 0.7407186 856075
0.32713017 -0.11507864 0.74027479 855819
0.31974784 -0.10170886 0.74000001 1118481
0.32641751 -0.10463841 0.74037498 987148
0.31974784 -0.096257024 0.74000007 1118481
0.32476494 -0.094718799 0.74103308 921357
0.32602063 -0.085858345 0.74380398 987407
0.33530515 -0.084787518 0.74639046 1118993
0.32914788 -0.078420758 0.74900001 1381908
0.33527145 -0.078420743 0.74899989 1250579
0.39324975 -0.063836642 0.74811101 724490
0.39252859 -0.054908924 0.74609387 527369
0.39247879 -0.045129139 0.74600023 461830
0.39269727 -0.035140343 0.74691421 330507
0.39245704 -0.025208183 0.74690706 659473
0.39341497 -0.014629498 0.74778116 856080
0.39424083 -0.0064146472 0.74785715 1053457
0.39536616 0.0049594212 0.74800009 1513747
0.40065178 -0.091152459 0.75800002 3748096
0.3950586 -0.085333988 0.75589281 4669958
0.40033466 -0.087361269 0.75740004 7828238
0.32744801 -0.076048143 0.75100011 1119252
0.33499131 -0.073855557 0.75250006 922131
0.39407557 -0.075235471 0.75199997 8222469
0.33593994 -0.067021951 0.75673008 922646
0.34463972 -0.066265956 0.75728607 725265
0.3933574 -0.06870231 0.75000006 4275975
0.40319756 -0.11270141 0.76800007 4208676
0.40257394 -0.10517579 0.7651875 1841423
0.39711979 -0.09641286 0.76033348 2104329
0.40134713 -0.096275315 0.76120007 2103815
0.3296324 -0.064641282 0.76000005 1580317
0.33424148 -0.062788069 0.76157594 1053975
0.34510976 -0.061118878 0.7626251 790801
0.33598587 -0.057809088 0.7665385 1251353
0.34510896 -0.057558045 0.76582867 987667
0.40492654 -0.12534334 0.77254897 6773841
0.40482715 -0.11696532 0.77066684 5656386
0.3376514 -0.052680217 0.77304345 1711386
0.3448565 -0.052457858 0.77205259 1842458
0.35301968 -0.052074052 0.77180964 1447702
0.33583185 -0.045983747 0.77525932 2961459
0.34508243 -0.046493717 0.77740538 1710871
0.35552126 -0.046251606 0.77514052 1777435
0.33894464 -0.04144071 0.78000003 8421507
0.34544569 -0.04153179 0.78171432 2697258
0.35438681 -0.041531786 0.78171432 921872
0.34821916 -0.037995428 0.78800005 5460310
0.35627472 -0.03695346 0.78610533 1974050
0.36387283 -0.033764597 0.78417027 987667
0.32741454 -0.022457011 0.78600007 8882055
0.33317965 -0.022542726 0.78900003 8947848
0.36682278 -0.025136644 0.78491318 2631980
0.32783204 -0.015738348 0.78748274 8750470
0.33188954 -0.01608401 0.78900003 8816264
0.36846438 -0.015644081 0.78508317 987668
0.3687042 -0.0054417825 0.78722739 922644
0.36865783 0.0052297497 0.78899992 5921890
0.34693557 -0.033147588 0.79461765 8553092
0.35475695 -0.032772865 0.79147393 7434099
0.36202046 -0.030331576 0.79000002 2695723
0.33814296 -0.024441332 0.79388225 8947593
0.34500796 -0.024681602 0.79544657 6908010
0.35501981 -0.024898585 0.79517657 8553091
0.36262864 -0.023834571 0.79214287 8158077
0.33540529 -0.014833515 0.79120016 7764346
0.34475338 -0.014902783 0.79485708 6382438
0.35493511 -0.0149204 0.79583943 4671562
0.36385879 -0.015116338 0.79225415 6382435
0.328567 -0.0051200301 0.79187506 8223873
0.33469692 -0.0051256171 0.79258913 3158582
0.34441218 -0.0051366505 0.79407108 5198161
0.35463181 -0.005144788 0.79515582 4277059
0.36396673 -0.0051285992 0.79284352 1514267
0.32903379 0.00071224192 0.79300004 8618632
0.33584124 0.0044123749 0.79299974 5329235
0.34458238 0.0054329159 0.79366612 5066060
0.35510555 0.0052555832 0.79458416 5263695
0.3643707 0.005089818 0.79288113 6316383
0.3690533 0.014169248 0.79039997 9144713
0.37093401 0.015657747 0.79072726 7433843
0.36894566 0.020783216 0.79100001 9144453
0.37088573 0.020783216 0.79100001 9407370
0.37541261 0.036970928 0.79099995 9013640
